ply
format ascii 1.0
comment Created by CloudCompare v2.13.alpha
comment Created 2023-12-11T16:53:27
obj_info Generated by CloudCompare!
element vertex 1201
property float x
property float y
property float z
property uchar red
property uchar green
property uchar blue
end_header
52.670460 76.995300 483.978149 10 10 10 
52.875175 76.997253 483.986237 9 9 9 
53.062904 76.974586 483.839630 7 7 7 
53.262905 76.969810 483.805389 8 8 8 
53.456562 76.955940 483.714020 8 8 8 
53.649921 76.941757 483.620636 8 8 8 
53.854153 76.943176 483.625366 7 7 7 
54.051373 76.934662 483.567566 7 7 7 
54.250549 76.928963 483.527435 6 6 6 
54.440235 76.909889 483.403290 5 5 5 
54.642933 76.909248 483.394989 6 6 6 
54.838818 76.899101 483.326904 5 5 5 
55.032867 76.886436 483.243011 4 4 4 
55.226360 76.873108 483.154846 6 6 6 
55.430000 76.873940 483.155792 4 4 4 
55.625164 76.863075 483.083130 4 4 4 
55.841057 76.880798 483.190125 5 5 5 
56.026707 76.856941 483.035797 4 4 4 
56.224312 76.849579 482.985138 4 4 4 
56.614124 76.827667 482.838562 4 4 4 
56.814007 76.823601 482.808502 4 4 4 
56.998222 76.798401 482.645752 4 4 4 
57.215981 76.818443 482.767151 4 4 4 
57.402222 76.796181 482.622742 4 4 4 
57.973370 76.746742 482.298553 4 4 4 
58.174431 76.744591 482.280426 2 2 2 
58.358883 76.720619 482.125214 4 4 4 
58.568424 76.729660 482.177460 4 4 4 
58.789829 76.754166 482.326874 4 4 4 
59.163464 76.712929 482.058533 3 3 3 
59.361652 76.707207 482.017914 4 4 4 
59.567326 76.711189 482.038330 4 4 4 
59.985817 76.728195 482.135773 4 4 4 
60.178890 76.715996 482.054413 4 4 4 
60.357700 76.685745 481.859589 4 4 4 
60.527164 76.643890 481.591888 4 4 4 
60.729862 76.644234 481.589325 3 3 3 
60.922806 76.632309 481.509674 4 4 4 
61.117638 76.622810 481.445251 4 4 4 
61.489960 76.582466 481.182159 4 4 4 
61.706612 76.600334 481.289612 5 5 5 
61.922276 76.616867 481.388672 5 5 5 
62.121838 76.613419 481.362152 5 5 5 
62.314907 76.602013 481.285675 6 6 6 
62.508129 76.590904 481.211029 7 7 7 
62.698833 76.576744 481.117188 6 6 6 
62.918785 76.598328 481.247833 5 5 5 
63.102837 76.576164 481.103760 5 5 5 
63.290970 76.559097 480.991608 5 5 5 
63.492867 76.558754 480.984467 6 6 6 
63.691666 76.554680 480.953918 6 6 6 
63.882267 76.540825 480.861938 6 6 6 
64.087067 76.543976 480.876801 6 6 6 
64.267365 76.517967 480.708405 5 5 5 
64.479790 76.530228 480.780396 7 7 7 
64.662949 76.507813 480.634552 7 7 7 
64.881630 76.527405 480.752655 8 8 8 
65.070343 76.511658 480.648651 6 6 6 
65.250946 76.486511 480.485626 5 5 5 
65.453995 76.487717 480.488190 4 4 4 
65.629211 76.456528 480.287170 5 5 5 
65.848389 76.476578 480.407959 6 6 6 
66.026634 76.449120 480.230377 6 6 6 
66.240311 76.462692 480.310547 5 5 5 
66.417053 76.433731 480.123413 8 8 8 
66.626640 76.442596 480.173950 6 6 6 
66.825600 76.439247 480.147766 7 7 7 
67.019455 76.430099 480.085114 5 5 5 
67.217224 76.425446 480.050720 5 5 5 
67.400673 76.404640 479.914795 6 6 6 
67.598785 76.400475 479.883392 7 7 7 
67.789574 76.388115 479.800537 7 7 7 
67.982483 76.378181 479.732910 7 7 7 
68.177422 76.370621 479.680206 6 6 6 
68.357933 76.346947 479.526184 7 7 7 
68.571373 76.360123 479.603668 7 7 7 
68.771523 76.358429 479.587738 7 7 7 
68.973343 76.358635 479.583710 8 8 8 
69.170517 76.353683 479.547211 7 7 7 
69.374466 76.356216 479.557831 7 7 7 
69.563683 76.342575 479.466766 8 8 8 
69.752396 76.328484 479.372894 8 8 8 
69.953354 76.327789 479.363129 8 8 8 
70.150139 76.322594 479.325134 6 6 6 
70.329544 76.298553 479.168762 6 6 6 
70.533249 76.300949 479.178345 6 6 6 
70.730606 76.296478 479.144867 6 6 6 
70.925774 76.289688 479.096771 5 5 5 
71.118408 76.280205 479.031738 5 5 5 
71.305389 76.264748 478.929138 4 4 4 
71.503494 76.261223 478.901581 6 6 6 
71.703949 76.260254 478.889923 7 7 7 
71.886803 76.240578 478.760925 8 8 8 
72.108017 76.261589 478.887360 6 6 6 
72.286804 76.237770 478.732147 6 6 6 
72.488594 76.238228 478.729523 6 6 6 
72.684105 76.232140 478.685638 5 5 5 
72.875061 76.221291 478.612030 5 5 5 
73.063522 76.207924 478.522461 5 5 5 
73.255333 76.198128 478.455322 6 6 6 
73.473877 76.216095 478.562500 6 6 6 
73.679634 76.220741 478.585999 5 5 5 
73.876038 76.215691 478.548645 5 5 5 
74.055771 76.193550 478.403992 5 5 5 
74.246178 76.182465 478.328705 6 6 6 
74.472183 76.207878 478.482544 6 6 6 
74.655693 76.189758 478.363098 4 4 4 
74.825073 76.157387 478.154144 4 4 4 
75.007782 76.138710 478.031128 6 6 6 
75.194649 76.124344 477.935181 6 6 6 
75.390213 76.118820 477.894775 4 4 4 
75.582932 76.110466 477.836548 4 4 4 
75.806473 76.133125 477.972992 6 6 6 
75.994202 76.119781 477.883484 5 5 5 
76.197693 76.122253 477.893158 6 6 6 
76.375679 76.099335 477.743408 4 4 4 
76.560562 76.083336 477.637177 5 5 5 
76.735397 76.057503 477.469116 5 5 5 
76.951950 76.073021 477.560730 6 6 6 
77.168915 76.088890 477.654388 4 4 4 
77.342873 76.062370 477.482025 8 8 8 
77.545479 76.064102 477.487030 7 7 7 
77.742500 76.060341 477.457489 6 6 6 
77.937668 76.054787 477.416748 8 8 8 
78.129372 76.045921 477.355103 9 9 9 
78.315750 76.031898 477.261108 11 11 11 
78.514137 76.029572 477.240601 8 8 8 
78.713715 76.028435 477.227509 8 8 8 
78.910912 76.025017 477.199982 8 8 8 
79.102699 76.016388 477.139832 7 7 7 
79.286949 76.000595 477.034698 8 8 8 
79.487358 76.000336 477.027039 6 6 6 
79.681946 75.994507 476.984406 8 8 8 
79.882141 75.994057 476.975494 8 8 8 
80.073074 75.984818 476.911469 9 9 9 
80.277214 75.988129 476.926208 8 8 8 
80.471649 75.982262 476.883240 5 5 5 
80.682068 75.991470 476.934967 8 8 8 
80.858322 75.968552 476.784943 8 8 8 
81.042862 75.953491 476.684326 7 7 7 
81.215485 75.927376 476.514221 9 9 9 
81.415016 75.926476 476.502472 9 9 9 
81.611847 75.923088 476.475006 8 8 8 
81.826851 75.936562 476.553375 6 6 6 
82.015823 75.925873 476.480133 7 7 7 
82.220535 75.929779 476.498474 8 8 8 
82.403671 75.913780 476.391846 9 9 9 
82.602325 75.912132 476.375244 7 7 7 
82.795792 75.905746 476.328888 6 6 6 
82.978050 75.889107 476.218231 6 6 6 
83.175346 75.886307 476.194397 7 7 7 
83.366173 75.877602 476.133545 7 7 7 
83.559639 75.871346 476.087952 8 8 8 
83.751450 75.863625 476.033234 7 7 7 
83.954849 75.866425 476.044434 7 7 7 
84.158401 75.869316 476.056213 6 6 6 
84.336014 75.848892 475.921753 8 8 8 
84.537079 75.849594 475.919830 8 8 8 
84.709129 75.824326 475.754913 8 8 8 
84.917755 75.831856 475.795776 7 7 7 
85.110985 75.825623 475.750214 7 7 7 
85.311081 75.825516 475.743164 8 8 8 
85.506638 75.821388 475.710907 8 8 8 
85.705650 75.820328 475.697784 9 9 9 
85.903046 75.817856 475.675842 8 8 8 
86.092354 75.808273 475.609253 7 7 7 
86.274017 75.792015 475.500793 8 8 8 
86.469788 75.788216 475.470490 6 6 6 
86.659859 75.779434 475.408936 8 8 8 
86.868813 75.787155 475.450867 6 6 6 
87.042969 75.764572 475.302643 7 7 7 
87.254196 75.774284 475.357025 8 8 8 
87.449020 75.769730 475.321991 6 6 6 
87.624557 75.748550 475.182526 7 7 7 
87.797218 75.724960 475.028046 8 8 8 
88.016632 75.741707 475.126465 8 8 8 
88.230499 75.753639 475.194733 11 11 11 
88.432892 75.755684 475.200897 10 10 10 
88.614807 75.740211 475.097229 8 8 8 
88.793938 75.722420 474.979004 8 8 8 
88.991615 75.720512 474.960419 8 8 8 
89.180069 75.710770 474.892700 9 9 9 
89.367966 75.700600 474.822205 10 10 10 
89.553207 75.688240 474.738037 10 10 10 
89.762360 75.696098 474.780640 10 10 10 
89.960342 75.694511 474.763947 10 10 10 
90.151604 75.687302 474.712067 9 9 9 
90.327316 75.667091 474.578583 12 12 12 
90.516380 75.658142 474.515717 11 11 11 
90.716995 75.658844 474.513397 10 10 10 
90.912117 75.654984 474.482422 12 12 12 
91.111954 75.655060 474.476135 12 12 12 
91.320244 75.662148 474.513824 13 13 13 
91.517212 75.659828 474.492523 11 11 11 
91.718224 75.660866 474.492188 8 8 8 
91.912537 75.656364 474.457153 6 6 6 
92.097603 75.644318 474.374786 4 4 4 
92.296059 75.643265 474.361359 3 3 3 
92.461960 75.615623 474.181183 4 4 4 
92.813210 75.576508 473.922119 4 4 4 
93.024406 75.585991 473.974731 5 5 5 
93.417336 75.581001 473.929626 4 4 4 
93.612495 75.577431 473.900360 4 4 4 
93.819771 75.583687 473.932617 4 4 4 
93.991005 75.560913 473.782928 3 3 3 
94.349586 75.528572 473.566223 4 4 4 
94.542397 75.523293 473.526184 4 4 4 
94.741119 75.522766 473.515900 4 4 4 
94.944992 75.526344 473.531342 4 4 4 
95.155647 75.535286 473.580322 4 4 4 
95.360085 75.539253 473.598236 4 4 4 
95.551468 75.532898 473.551300 4 4 4 
95.766434 75.545143 473.621124 5 5 5 
95.929123 75.516212 473.432709 5 5 5 
96.156555 75.538269 473.563904 4 4 4 
96.316872 75.507607 473.364563 3 3 3 
96.506142 75.499725 473.308075 4 4 4 
96.690529 75.488075 473.227936 5 5 5 
96.871788 75.474014 473.132721 4 4 4 
97.077629 75.479134 473.157715 3 3 3 
102.243568 75.321434 471.973175 3 3 3 
102.449036 75.326302 471.996216 3 3 3 
102.641151 75.321373 471.957916 3 3 3 
102.882088 75.352203 472.143677 2 2 2 
111.673256 75.111183 470.281281 3 3 3 
111.873451 75.112480 470.281555 3 3 3 
125.403351 74.787697 467.668365 3 3 3 
125.609489 74.792931 467.692596 3 3 3 
126.278526 74.721680 467.213226 3 3 3 
126.464233 74.714905 467.162415 3 3 3 
126.671646 74.720963 467.191803 3 3 3 
126.837242 74.702354 467.067017 4 4 4 
127.084679 74.731949 467.243530 5 5 5 
127.294762 74.739502 467.282257 4 4 4 
127.452507 74.716377 467.129150 4 4 4 
127.696846 74.743996 467.293335 4 4 4 
127.843422 74.714386 467.099670 4 4 4 
128.042084 74.715263 467.096649 5 5 5 
128.244720 74.718460 467.108093 4 4 4 
128.390991 74.688866 466.914551 6 6 6 
128.598068 74.694687 466.942352 6 6 6 
128.752731 74.670067 466.779938 5 5 5 
128.947189 74.668579 466.762054 7 7 7 
129.138794 74.665451 466.733917 7 7 7 
129.328033 74.660957 466.697327 7 7 7 
129.530594 74.664146 466.708710 7 7 7 
129.740707 74.671692 466.747284 6 6 6 
129.912308 74.657089 466.647400 4 4 4 
130.092468 74.647430 466.578400 6 6 6 
130.284836 74.644798 466.553375 6 6 6 
130.486160 74.647293 466.560394 4 4 4 
130.681839 74.646568 466.547241 3 3 3 
130.884750 74.649956 466.559814 4 4 4 
131.096939 74.658630 466.605408 3 3 3 
131.255936 74.637032 466.461731 4 4 4 
131.408951 74.612076 466.297241 3 3 3 
131.573471 74.593750 466.174072 4 4 4 
131.750992 74.582832 466.097198 3 3 3 
131.923233 74.568962 466.001892 3 3 3 
132.955109 74.595970 466.127319 3 3 3 
133.160645 74.600853 466.149200 4 4 4 
133.330246 74.585632 466.045380 4 4 4 
133.574432 74.612099 466.202087 3 3 3 
133.703827 74.574471 465.958282 4 4 4 
144.701111 74.362068 464.121460 2 2 2 
144.863495 74.344749 464.004456 3 3 3 
145.008972 74.318794 463.833588 2 2 2 
145.202103 74.317307 463.815430 5 5 5 
145.435883 74.336594 463.926941 4 4 4 
145.611740 74.326279 463.853607 4 4 4 
145.769531 74.306786 463.723053 4 4 4 
145.992889 74.320702 463.801025 4 4 4 
146.191223 74.321869 463.799438 3 3 3 
146.367523 74.311867 463.728058 2 2 2 
146.522690 74.291145 463.589905 3 3 3 
146.753799 74.308937 463.692047 2 2 2 
147.136642 74.304329 463.645447 2 2 2 
-17.639929 78.745071 494.181152 22 22 22 
-17.417326 78.676689 493.753265 39 39 39 
-17.181145 78.544518 492.925079 44 44 44 
-16.951511 78.439484 492.267181 51 51 51 
-16.723913 78.341354 491.652588 54 54 54 
-16.500031 78.258408 491.133209 61 61 61 
-16.279718 78.190506 490.708282 63 63 63 
-16.058578 78.116859 490.247223 66 66 66 
-15.839641 78.052132 489.842255 69 69 69 
-15.622000 77.992157 489.466919 71 71 71 
-15.405155 77.934654 489.107208 75 75 75 
-15.190708 77.887848 488.814545 76 76 76 
-14.975398 77.835335 488.486115 83 83 83 
-14.762152 77.792183 488.216400 81 81 81 
-14.548738 77.746948 487.933472 85 85 85 
-14.336441 77.706467 487.680481 92 92 92 
-14.125050 77.669792 487.451385 91 91 91 
-13.912729 77.626884 487.183075 89 89 89 
-13.702661 77.595444 486.986725 95 95 95 
-13.491971 77.559410 486.761597 98 98 98 
-13.281607 77.524254 486.541901 99 99 99 
-13.072128 77.493187 486.347839 100 100 100 
-12.862806 77.462151 486.154022 100 100 100 
-12.654257 77.434776 485.983154 100 100 100 
-12.445410 77.404663 485.795013 101 101 101 
-12.236666 77.374199 485.604706 101 101 101 
-12.028810 77.348434 485.443848 103 103 103 
-11.820910 77.321487 485.275574 103 103 103 
-11.614069 77.300652 485.145660 106 106 106 
-11.406862 77.276619 484.995605 106 106 106 
-11.199728 77.252190 484.843170 107 107 107 
-10.993172 77.230850 484.710022 109 109 109 
-10.786625 77.208878 484.572876 108 108 108 
-10.580106 77.186272 484.431702 108 108 108 
-10.373977 77.165581 484.302612 108 108 108 
-10.168327 77.147728 484.191254 111 111 111 
-9.962916 77.131081 484.087494 112 112 112 
-9.757299 77.112030 483.968597 112 112 112 
-9.552055 77.095184 483.863525 110 110 110 
-9.347018 77.079315 483.764618 113 113 113 
-9.142766 77.069366 483.702820 112 112 112 
-8.937586 77.050972 483.587982 114 114 114 
-8.732798 77.035194 483.489563 112 112 112 
-8.528139 77.019852 483.393799 111 111 111 
-8.323852 77.007172 483.314850 116 116 116 
-8.119101 76.989502 483.204468 113 113 113 
-7.915322 76.980247 483.146942 112 112 112 
-7.711375 76.968979 483.076691 115 115 115 
-7.507177 76.954506 482.986389 115 115 115 
-7.303206 76.941521 482.905334 113 113 113 
-7.099364 76.929329 482.829315 118 118 118 
-6.895736 76.918671 482.762878 115 115 115 
-6.692182 76.908371 482.698700 118 118 118 
-6.488686 76.897964 482.633850 113 113 113 
-6.285583 76.891708 482.594971 113 113 113 
-6.082469 76.885071 482.553680 116 116 116 
-5.879438 76.878899 482.515350 117 117 117 
-5.676391 76.872070 482.472870 114 114 114 
-5.473211 76.862892 482.415588 113 113 113 
-5.270153 76.854965 482.366150 113 113 113 
-5.067243 76.848465 482.325653 115 115 115 
-4.864397 76.842438 482.288147 118 118 118 
-4.661776 76.839607 482.270660 114 114 114 
-4.459130 76.836105 482.248932 110 110 110 
-4.256478 76.832146 482.224396 113 113 113 
-4.053888 76.828995 482.204834 115 115 115 
-3.851410 76.827751 482.197235 115 115 115 
-3.648781 76.823181 482.168732 113 113 113 
-3.446198 76.819107 482.143372 116 116 116 
-3.243749 76.817726 482.134918 109 109 109 
-3.041287 76.815842 482.123199 115 115 115 
-2.838887 76.815353 482.120300 113 113 113 
-2.636412 76.812607 482.103149 110 110 110 
-2.434018 76.811958 482.099213 113 113 113 
-2.231776 76.816017 482.124756 112 112 112 
-2.029330 76.813644 482.109985 111 111 111 
-1.827022 76.816551 482.128296 106 106 106 
-1.624651 76.817223 482.132538 109 109 109 
-1.422282 76.818184 482.138611 108 108 108 
-1.219927 76.820335 482.152100 108 108 108 
-1.017581 76.824028 482.175323 108 108 108 
-0.815218 76.826767 482.192505 106 106 106 
-0.612823 76.828995 482.206390 107 107 107 
-0.410421 76.831902 482.224579 105 105 105 
-0.208013 76.838242 482.264343 106 106 106 
-0.005571 76.838127 482.263550 105 105 105 
0.196880 76.841537 482.284821 102 102 102 
0.399373 76.849777 482.336426 103 103 103 
0.601884 76.854668 482.367004 104 104 104 
0.804418 76.859352 482.396210 102 102 102 
1.007018 76.868156 482.451355 97 97 97 
1.209658 76.875793 482.499115 103 103 103 
1.412417 76.887718 482.573730 99 99 99 
1.615217 76.898582 482.641754 99 99 99 
1.817884 76.901451 482.659515 95 95 95 
2.020758 76.911613 482.723053 98 98 98 
2.223538 76.916260 482.751923 94 94 94 
2.426514 76.926727 482.817413 92 92 92 
2.629531 76.936798 482.880310 91 91 91 
2.832705 76.949699 482.960938 89 89 89 
3.035875 76.960793 483.030273 91 91 91 
3.239223 76.974724 483.117371 89 89 89 
3.442688 76.989372 483.208954 89 89 89 
3.646206 77.003777 483.298981 88 88 88 
3.849552 77.013252 483.358063 83 83 83 
4.053195 77.027405 483.446472 82 82 82 
4.256827 77.039795 483.523895 83 83 83 
4.460887 77.058693 483.641968 81 81 81 
4.664791 77.073151 483.732300 79 79 79 
4.868876 77.089478 483.834290 80 80 80 
5.072952 77.104187 483.926147 73 73 73 
5.277298 77.121887 484.036774 75 75 75 
5.481688 77.138741 484.142029 75 75 75 
5.686226 77.156403 484.252319 72 72 72 
5.890726 77.172356 484.351898 69 69 69 
6.095556 77.191597 484.472076 71 71 71 
6.300900 77.215736 484.622986 68 68 68 
6.506483 77.241211 484.782318 68 68 68 
6.711558 77.259308 484.895264 64 64 64 
6.917374 77.284622 485.053558 64 64 64 
7.122787 77.304123 485.175323 61 61 61 
7.329402 77.335121 485.369141 60 60 60 
7.535304 77.357231 485.507294 60 60 60 
7.742198 77.388107 485.700378 59 59 59 
7.948558 77.412086 485.850159 56 56 56 
8.155883 77.444153 486.050690 52 52 52 
8.363193 77.474525 486.240601 55 55 55 
8.570898 77.506927 486.443146 50 50 50 
8.777965 77.532188 486.600922 50 50 50 
8.986666 77.570518 486.840698 47 47 47 
9.195026 77.604164 487.051086 45 45 45 
9.404044 77.641800 487.286438 44 44 44 
9.614002 77.685440 487.559418 40 40 40 
9.824261 77.729614 487.835938 39 39 39 
10.034255 77.769974 488.088287 36 36 36 
10.243949 77.806343 488.315674 35 35 35 
10.454475 77.847603 488.573639 32 32 32 
10.667068 77.902344 488.916351 30 30 30 
10.879357 77.952766 489.231873 26 26 26 
11.091105 77.997528 489.511871 24 24 24 
11.305589 78.059654 489.900726 21 21 21 
11.520786 78.124390 490.306061 17 17 17 
11.737022 78.193634 490.739594 15 15 15 
11.950422 78.242073 491.042603 11 11 11 
12.168937 78.321648 491.540985 9 9 9 
12.383465 78.373512 491.865356 5 5 5 
41.804638 77.793175 487.905579 4 4 4 
42.003235 77.781418 487.828491 3 3 3 
42.404312 77.765381 487.721191 4 4 4 
42.613781 77.773811 487.770599 4 4 4 
42.808941 77.756142 487.656464 4 4 4 
43.004021 77.738480 487.542267 4 4 4 
43.205219 77.732002 487.498169 4 4 4 
43.397549 77.709702 487.354858 4 4 4 
43.596275 77.699043 487.284485 5 5 5 
43.799927 77.697197 487.269501 4 4 4 
43.999031 77.687363 487.204285 4 4 4 
44.192505 77.667679 487.077362 5 5 5 
44.402405 77.676926 487.131836 4 4 4 
44.585831 77.640007 486.896698 5 5 5 
44.777916 77.618423 486.757843 5 5 5 
44.967861 77.593361 486.597076 5 5 5 
45.176300 77.600296 486.636993 6 6 6 
45.390759 77.617432 486.740845 7 7 7 
45.584488 77.599136 486.622437 6 6 6 
45.785271 77.592995 486.580353 7 7 7 
45.987621 77.589485 486.554688 7 7 7 
46.191536 77.588692 486.546021 8 8 8 
46.388031 77.575493 486.459595 8 8 8 
46.580395 77.555496 486.330475 8 8 8 
46.778431 77.545082 486.261536 9 9 9 
46.969940 77.524010 486.125641 9 9 9 
47.168690 77.515015 486.065491 10 10 10 
47.362663 77.498291 485.956879 10 10 10 
47.568138 77.500450 485.966675 9 9 9 
47.766510 77.491051 485.903931 10 10 10 
47.966999 77.485153 485.863129 10 10 10 
48.167183 77.478821 485.819580 10 10 10 
48.356705 77.455467 485.669373 11 11 11 
48.556915 77.449326 485.627045 11 11 11 
48.763664 77.453674 485.650421 11 11 11 
48.957718 77.437881 485.547485 11 11 11 
49.155460 77.428017 485.481812 13 13 13 
49.348228 77.410461 485.367767 13 13 13 
49.546093 77.401001 485.304596 15 15 15 
49.747547 77.397179 485.276703 14 14 14 
49.945522 77.388039 485.215454 12 12 12 
50.148308 77.386368 485.201019 14 14 14 
50.344395 77.374428 485.122192 12 12 12 
50.535980 77.355675 485.000549 13 13 13 
50.734142 77.347115 484.942932 12 12 12 
50.939873 77.350113 484.957672 13 13 13 
51.124844 77.321724 484.775635 12 12 12 
51.319675 77.308380 484.687958 11 11 11 
51.521580 77.305725 484.667267 12 12 12 
51.720821 77.299156 484.622040 10 10 10 
51.921093 77.294144 484.586517 12 12 12 
52.118137 77.284431 484.521515 12 12 12 
52.312943 77.271461 484.436066 10 10 10 
52.514236 77.268135 484.411102 10 10 10 
52.709824 77.256454 484.333710 9 9 9 
52.904007 77.242844 484.244263 10 10 10 
53.102440 77.235512 484.194061 9 9 9 
53.299862 77.226753 484.135010 10 10 10 
53.497269 77.218071 484.076294 8 8 8 
53.697159 77.212982 484.040192 7 7 7 
53.893803 77.203331 483.975433 9 9 9 
54.102859 77.211426 484.022003 7 7 7 
54.285507 77.181931 483.832794 7 7 7 
54.477505 77.165909 483.728058 7 7 7 
54.687214 77.175003 483.780792 6 6 6 
54.889095 77.173012 483.763947 6 6 6 
55.081104 77.157181 483.660492 7 7 7 
55.279156 77.149933 483.610687 5 5 5 
55.465672 77.126717 483.460724 5 5 5 
55.670635 77.129211 483.472015 4 4 4 
55.870235 77.124245 483.436615 5 5 5 
56.064121 77.111496 483.352234 6 6 6 
56.263233 77.105988 483.313324 5 5 5 
56.462555 77.100822 483.276489 5 5 5 
56.666573 77.102097 483.279999 4 4 4 
57.044430 77.063782 483.030945 4 4 4 
57.237118 77.049904 482.939484 3 3 3 
58.822144 76.999290 482.585876 3 3 3 
60.365028 76.897736 481.912201 3 3 3 
60.770180 76.897774 481.902954 3 3 3 
61.391449 76.914818 481.995483 3 3 3 
61.746773 76.852745 481.596924 3 3 3 
61.941025 76.842575 481.528320 3 3 3 
62.333824 76.827766 481.425903 3 3 3 
62.513859 76.800339 481.249084 5 5 5 
62.721066 76.806358 481.281921 5 5 5 
62.930691 76.815262 481.332886 6 6 6 
63.143566 76.828117 481.408478 5 5 5 
63.321220 76.798141 481.215729 6 6 6 
63.531246 76.807465 481.269226 5 5 5 
63.735008 76.809212 481.275269 5 5 5 
63.915062 76.782455 481.102661 5 5 5 
64.105980 76.768898 481.012695 4 4 4 
64.310654 76.771843 481.026123 5 5 5 
64.490456 76.745163 480.854034 5 5 5 
64.708710 76.764267 480.968658 4 4 4 
64.886314 76.735176 480.781372 5 5 5 
65.086899 76.733360 480.765015 4 4 4 
65.497658 76.741035 480.802948 3 3 3 
65.857063 76.688782 480.465363 5 5 5 
66.082497 76.715965 480.630554 6 6 6 
66.255966 76.682877 480.418152 6 6 6 
66.455887 76.680496 480.398102 5 5 5 
66.657143 76.679665 480.387726 5 5 5 
66.837074 76.654404 480.224304 6 6 6 
67.054489 76.672127 480.330078 5 5 5 
67.235649 76.648430 480.176544 5 5 5 
67.437714 76.648636 480.172577 5 5 5 
67.627258 76.634628 480.079559 5 5 5 
67.837517 76.644142 480.133942 5 5 5 
68.030228 76.633804 480.063934 5 5 5 
68.211937 76.611183 479.916962 5 5 5 
68.406242 76.602814 479.859253 4 4 4 
68.580772 76.572403 479.663513 5 5 5 
68.792839 76.583961 479.730591 6 6 6 
68.990242 76.579178 479.695251 5 5 5 
69.216568 76.606430 479.860687 6 6 6 
69.406792 76.593666 479.775360 5 5 5 
69.600006 76.584305 479.711395 4 4 4 
69.795708 76.577705 479.664673 5 5 5 
70.001511 76.582184 479.687256 5 5 5 
70.186493 76.563950 479.567688 5 5 5 
70.375305 76.549950 479.474640 5 5 5 
70.554749 76.525902 479.318573 5 5 5 
70.757072 76.526733 479.318329 6 6 6 
70.962646 76.531052 479.339935 6 6 6 
71.149567 76.515297 479.235840 5 5 5 
71.335075 76.498138 479.122772 7 7 7 
71.543022 76.505013 479.160431 8 8 8 
71.722672 76.481720 479.009033 7 7 7 
71.926964 76.484756 479.022491 7 7 7 
72.121323 76.477242 478.969910 7 7 7 
72.333107 76.488205 479.032959 5 5 5 
72.501762 76.453598 478.810699 6 6 6 
72.707626 76.458328 478.834747 6 6 6 
72.908295 76.457581 478.824493 4 4 4 
73.078712 76.425217 478.616180 5 5 5 
73.279274 76.424446 478.605774 5 5 5 
73.491791 76.436119 478.673279 5 5 5 
73.708679 76.452278 478.768799 5 5 5 
73.885315 76.426712 478.603058 4 4 4 
74.080307 76.420212 478.556641 5 5 5 
74.266685 76.404877 478.454956 5 5 5 
74.484131 76.421509 478.553467 6 6 6 
74.683960 76.420029 478.538391 5 5 5 
74.858849 76.393105 478.364075 5 5 5 
75.047844 76.380661 478.280518 5 5 5 
75.441109 76.371490 478.211487 4 4 4 
75.623596 76.352661 478.087891 4 4 4 
75.832321 76.360359 478.130249 5 5 5 
76.038353 76.365280 478.155304 4 4 4 
76.242012 76.367805 478.165314 4 4 4 
77.002838 76.324501 477.870789 4 4 4 
77.199524 76.320221 477.838104 4 4 4 
77.375786 76.295830 477.679504 7 7 7 
77.566162 76.285423 477.608490 10 10 10 
77.774605 76.292809 477.648804 5 5 5 
77.957573 76.275246 477.532867 6 6 6 
78.141579 76.258781 477.423859 8 8 8 
78.348648 76.264839 477.455811 8 8 8 
78.531044 76.246910 477.337616 8 8 8 
78.748856 76.263382 477.434753 8 8 8 
78.943550 76.257416 477.391479 8 8 8 
79.128754 76.242355 477.291138 8 8 8 
79.308594 76.222214 477.159058 6 6 6 
79.507317 76.220291 477.140961 7 7 7 
79.690094 76.203110 477.027374 8 8 8 
79.891716 76.203995 477.026855 7 7 7 
80.092995 76.204559 477.024323 8 8 8 
80.297981 76.208641 477.043823 8 8 8 
80.500015 76.209892 477.045563 7 7 7 
80.701859 76.210968 477.046173 7 7 7 
80.892967 76.201912 476.983368 8 8 8 
81.060806 76.171059 476.784088 8 8 8 
81.243523 76.154289 476.673004 8 8 8 
81.429634 76.140785 476.582336 8 8 8 
81.647995 76.157417 476.680237 7 7 7 
81.836693 76.146370 476.604919 8 8 8 
82.056946 76.164665 476.713257 7 7 7 
82.227661 76.137024 476.534027 5 5 5 
82.433426 76.141861 476.558105 7 7 7 
82.615723 76.125069 476.446747 7 7 7 
82.820900 76.129395 476.467560 7 7 7 
83.009682 76.118645 476.394043 5 5 5 
83.183968 76.094727 476.238068 6 6 6 
83.395271 76.104660 476.293915 5 5 5 
83.557251 76.069656 476.068634 6 6 6 
83.760841 76.072617 476.080841 11 11 11 
83.974274 76.084480 476.148773 10 10 10 
84.174927 76.084747 476.144073 6 6 6 
84.379669 76.088669 476.162354 7 7 7 
84.557884 76.068741 476.031189 7 7 7 
84.750656 76.061951 475.982422 6 6 6 
84.931374 76.044426 475.866333 7 7 7 
85.135269 76.047676 475.880249 6 6 6 
85.338554 76.050354 475.890656 7 7 7 
85.512337 76.026794 475.736786 8 8 8 
85.714264 76.028328 475.739960 9 9 9 
85.913414 76.027390 475.727600 9 9 9 
86.097931 76.013535 475.634460 7 7 7 
86.301109 76.016167 475.644470 7 7 7 
86.474930 75.992996 475.493042 8 8 8 
86.690063 76.006157 475.568909 8 8 8 
86.873329 75.991371 475.469849 7 7 7 
87.078911 75.996155 475.493286 9 9 9 
87.265587 75.984444 475.413483 9 9 9 
87.478722 75.995758 475.477753 9 9 9 
87.648224 75.969208 475.305084 7 7 7 
87.840958 75.962883 475.258881 8 8 8 
88.043945 75.965424 475.268280 7 7 7 
88.250206 75.970787 475.295227 11 11 11 
88.448349 75.969147 475.278320 10 10 10 
88.622559 75.946976 475.133057 8 8 8 
88.823349 75.947662 475.130737 8 8 8 
89.022972 75.947342 475.122101 7 7 7 
89.229897 75.953255 475.152374 9 9 9 
89.417618 75.942787 475.080322 7 7 7 
89.594749 75.923447 474.952606 7 7 7 
89.776787 75.908318 474.851288 6 6 6 
89.967407 75.900482 474.795593 6 6 6 
90.157005 75.891846 474.734894 7 7 7 
90.346252 75.882942 474.672485 7 7 7 
90.540855 75.878571 474.638306 8 8 8 
90.735413 75.874168 474.604126 9 9 9 
90.942734 75.880447 474.636627 10 10 10 
91.144707 75.882233 474.641052 12 12 12 
91.336143 75.875290 474.590790 10 10 10 
91.550903 75.887672 474.661499 9 9 9 
91.745247 75.883141 474.626343 6 6 6 
91.922592 75.864586 474.503448 5 5 5 
92.133835 75.874039 474.555817 4 4 4 
92.426262 75.786163 473.992493 2 2 2 
93.055206 75.810829 474.126129 3 3 3 
93.269447 75.822685 474.193481 3 3 3 
93.438812 75.798126 474.032898 4 4 4 
93.648018 75.805916 474.074707 4 4 4 
94.004646 75.771568 473.846069 4 4 4 
94.965401 75.742180 473.627441 4 4 4 
95.347710 75.729012 473.531128 3 3 3 
95.559311 75.738701 473.584625 4 4 4 
95.743362 75.726532 473.501526 4 4 4 
95.962112 75.741806 473.589996 5 5 5 
96.167870 75.746773 473.614014 5 5 5 
96.518463 75.708885 473.362946 3 3 3 
96.681763 75.680679 473.179474 4 4 4 
96.895020 75.691605 473.240662 4 4 4 
102.902664 75.566399 472.232574 3 3 3 
125.381416 74.972168 467.581512 2 2 2 
126.484146 74.924095 467.230927 2 2 2 
126.675255 74.920502 467.200104 4 4 4 
126.879005 74.924370 467.215790 3 3 3 
127.053581 74.911041 467.124176 4 4 4 
127.292877 74.935844 467.270355 4 4 4 
127.510941 74.948128 467.338348 4 4 4 
127.693787 74.939651 467.277039 3 3 3 
127.879280 74.932785 467.225739 4 4 4 
128.078476 74.933952 467.224457 4 4 4 
128.228592 74.906433 467.044373 4 4 4 
128.425720 74.906433 467.035797 4 4 4 
128.568436 74.874748 466.829712 4 4 4 
128.746307 74.863602 466.751648 4 4 4 
128.963242 74.875168 466.815277 5 5 5 
129.151703 74.870178 466.775635 5 5 5 
129.339676 74.864937 466.734314 5 5 5 
129.534592 74.863731 466.718231 6 6 6 
129.727127 74.861145 466.693542 6 6 6 
129.937149 74.868622 466.731628 6 6 6 
130.110413 74.854973 466.637878 6 6 6 
130.321167 74.862877 466.678619 4 4 4 
130.506180 74.855980 466.627014 5 5 5 
130.709549 74.859642 466.641235 4 4 4 
130.861359 74.833786 466.471497 3 3 3 
131.116013 74.866760 466.668365 3 3 3 
131.402969 74.805794 466.271118 3 3 3 
131.588837 74.799561 466.223633 3 3 3 
131.921158 74.764793 465.989655 4 4 4 
132.490814 74.753174 465.891327 3 3 3 
132.980896 74.807541 466.212860 3 3 3 
133.347778 74.792496 466.101746 4 4 4 
133.678299 74.757202 465.864502 3 3 3 
145.203888 74.514549 463.816589 3 3 3 
145.442764 74.536499 463.944366 3 3 3 
145.597412 74.515297 463.803436 6 6 6 
145.791901 74.514511 463.789703 4 4 4 
145.993912 74.517555 463.799805 3 3 3 
146.195999 74.520638 463.810059 3 3 3 
146.373306 74.511108 463.741882 4 4 4 
146.543625 74.498039 463.651642 4 4 4 
146.804596 74.531036 463.848053 3 3 3 
147.500854 74.486572 463.535828 3 3 3 
-17.433798 78.958755 494.214447 31 31 31 
-17.200197 78.839012 493.466248 40 40 40 
-16.966961 78.717995 492.710052 46 46 46 
-16.737715 78.612793 492.052795 52 52 52 
-16.512482 78.524002 491.498230 56 56 56 
-16.290508 78.448662 491.027832 61 61 61 
-16.069788 78.377518 490.583710 62 62 62 
-15.849003 78.304199 490.125977 66 66 66 
-15.630953 78.242653 489.741913 69 69 69 
-15.414380 78.186981 489.394531 71 71 71 
-15.197979 78.130615 489.042847 75 75 75 
-14.982759 78.078957 488.720581 79 79 79 
-14.768669 78.031754 488.426208 82 82 82 
-14.555201 77.986633 488.144806 81 81 81 
-14.342594 77.944847 487.884308 84 84 84 
-14.130952 77.907173 487.649506 89 89 89 
-13.919569 77.869843 487.416901 89 89 89 
-13.707520 77.827637 487.153687 92 92 92 
-13.497084 77.793457 486.940674 94 94 94 
-13.286738 77.758759 486.724426 95 95 95 
-13.076577 77.723991 486.507813 94 94 94 
-12.867599 77.695366 486.329498 99 99 99 
-12.658513 77.665077 486.140869 99 99 99 
-12.449658 77.635315 485.955505 103 103 103 
-12.241285 77.607559 485.782654 98 98 98 
-12.032637 77.577095 485.592773 100 100 100 
-11.825233 77.553825 485.447998 105 105 105 
-11.617661 77.528534 485.290527 101 101 101 
-11.410700 77.506508 485.153442 105 105 105 
-11.203194 77.479927 484.987823 107 107 107 
-10.996540 77.458366 484.853668 104 104 104 
-10.789760 77.434998 484.708130 105 105 105 
-10.583140 77.412003 484.564972 105 105 105 
-10.377352 77.394325 484.454987 108 108 108 
-10.171440 77.374886 484.334137 108 108 108 
-9.966011 77.358536 484.232452 110 110 110 
-9.760701 77.342361 484.131836 110 110 110 
-9.554841 77.321129 483.999634 111 111 111 
-9.350175 77.308762 483.922821 109 109 109 
-9.144914 77.290817 483.811188 109 109 109 
-8.940201 77.276802 483.724121 112 112 112 
-8.734990 77.257767 483.605469 110 110 110 
-8.530691 77.246178 483.533539 110 110 110 
-8.325538 77.225990 483.407715 110 110 110 
-8.121340 77.213882 483.332581 114 114 114 
-7.916893 77.198631 483.237610 110 110 110 
-7.712805 77.186287 483.160828 113 113 113 
-7.509054 77.176735 483.101593 111 111 111 
-7.305058 77.164093 483.022919 112 112 112 
-7.101326 77.153603 482.957703 114 114 114 
-6.897736 77.143944 482.897705 111 111 111 
-6.694023 77.132431 482.826111 113 113 113 
-6.490757 77.125511 482.783264 118 118 118 
-6.287179 77.114197 482.712830 116 116 116 
-6.083989 77.107193 482.669373 116 116 116 
-5.880916 77.101097 482.631561 112 112 112 
-5.677749 77.093452 482.584106 110 110 110 
-5.474728 77.087135 482.544891 110 110 110 
-5.271340 77.074982 482.469116 113 113 113 
-5.068658 77.072777 482.455688 113 113 113 
-4.865906 77.069099 482.432922 112 112 112 
-4.662993 77.062424 482.391449 112 112 112 
-4.460287 77.058968 482.370087 115 115 115 
-4.257560 77.054565 482.342804 109 109 109 
-4.054844 77.049965 482.314209 111 111 111 
-3.852336 77.049004 482.308441 109 109 109 
-3.649660 77.044449 482.280060 113 113 113 
-3.447140 77.043098 482.271820 112 112 112 
-3.244482 77.038017 482.240173 112 112 112 
-3.042064 77.038345 482.242401 110 110 110 
-2.839507 77.034966 482.221405 110 110 110 
-2.637120 77.036026 482.228210 112 112 112 
-2.434679 77.035553 482.225342 109 109 109 
-2.232324 77.037971 482.240509 112 112 112 
-2.029871 77.037201 482.235779 107 107 107 
-1.827418 77.036209 482.229675 108 108 108 
-1.625020 77.038170 482.242004 108 108 108 
-1.422572 77.037361 482.236938 107 107 107 
-1.220225 77.042603 482.269745 108 108 108 
-1.017824 77.045891 482.290314 106 106 106 
-0.815368 77.045624 482.288666 107 107 107 
-0.612954 77.050476 482.318970 104 104 104 
-0.410497 77.051880 482.327728 104 104 104 
-0.208043 77.057541 482.363068 102 102 102 
-0.005560 77.061264 482.386322 104 104 104 
0.196936 77.062370 482.393066 101 101 101 
0.399468 77.069168 482.435577 100 100 100 
0.602062 77.079407 482.499542 99 99 99 
0.804678 77.085472 482.537323 100 100 100 
1.007283 77.089249 482.560822 99 99 99 
1.210019 77.100060 482.628326 99 99 99 
1.412791 77.109756 482.688843 96 96 96 
1.615586 77.118111 482.740936 98 98 98 
1.818474 77.128571 482.806183 95 95 95 
2.021296 77.133965 482.839722 94 94 94 
2.224205 77.141815 482.888519 95 95 95 
2.427221 77.151764 482.950623 92 92 92 
2.630323 77.162369 483.016663 91 91 91 
2.833460 77.172737 483.081268 89 89 89 
3.036649 77.183044 483.145477 87 87 87 
3.240087 77.197731 483.237091 89 89 89 
3.443433 77.208893 483.306610 85 85 85 
3.646989 77.223015 483.394623 84 84 84 
3.850445 77.233902 483.462341 85 85 85 
4.054018 77.245689 483.535767 82 82 82 
4.258004 77.264076 483.650482 83 83 83 
4.462097 77.282463 483.765106 82 82 82 
4.666245 77.300156 483.875366 77 77 77 
4.870161 77.312881 483.954590 77 77 77 
5.074522 77.331215 484.068878 76 76 76 
5.278882 77.348099 484.174133 73 73 73 
5.483374 77.365623 484.283234 71 71 71 
5.687861 77.381836 484.384216 71 71 71 
5.892949 77.404816 484.527527 68 68 68 
6.097999 77.425804 484.658356 69 69 69 
6.303218 77.447525 484.793701 67 67 67 
6.508725 77.471298 484.941986 66 66 66 
6.714119 77.492363 485.073181 62 62 62 
6.919272 77.509483 485.179749 63 63 63 
7.125647 77.538795 485.362549 60 60 60 
7.331321 77.559204 485.489624 58 58 58 
7.538246 77.591255 485.689575 56 56 56 
7.744176 77.611794 485.817444 56 56 56 
7.951307 77.642883 486.011353 55 55 55 
8.158627 77.674339 486.207550 52 52 52 
8.366145 77.706001 486.404999 51 51 51 
8.573889 77.738205 486.605865 49 49 49 
8.781509 77.767830 486.790497 46 46 46 
8.990030 77.803902 487.015533 45 45 45 
9.199010 77.842278 487.254883 45 45 45 
9.407942 77.878578 487.481323 41 41 41 
9.618465 77.926239 487.778778 40 40 40 
9.828669 77.969383 488.048004 37 37 37 
10.039049 78.012054 488.314240 37 37 37 
10.248837 78.048615 488.542145 31 31 31 
10.459589 78.090836 488.805573 30 30 30 
10.671569 78.140541 489.115723 27 27 27 
10.884425 78.194565 489.453003 24 24 24 
11.098603 78.255928 489.836121 22 22 22 
11.312890 78.315910 490.210602 18 18 18 
11.528502 78.382584 490.626953 16 16 16 
11.744743 78.451309 491.056122 12 12 12 
11.959553 78.508095 491.410553 10 10 10 
12.171659 78.545700 491.644867 6 6 6 
45.432392 77.893387 487.181122 4 4 4 
45.631500 77.883911 487.118195 3 3 3 
45.827892 77.869911 487.026978 5 5 5 
46.033623 77.871819 487.035339 4 4 4 
46.231678 77.860817 486.962769 5 5 5 
46.429039 77.848701 486.883331 4 4 4 
46.620758 77.827278 486.745697 5 5 5 
46.820419 77.819298 486.692047 5 5 5 
47.020195 77.811539 486.639832 5 5 5 
47.207176 77.782738 486.455933 5 5 5 
47.406353 77.774231 486.399017 6 6 6 
47.598656 77.754547 486.272095 7 7 7 
47.803192 77.754967 486.270996 6 6 6 
48.004467 77.750076 486.236603 7 7 7 
48.210846 77.753426 486.253723 7 7 7 
48.405384 77.737785 486.152039 7 7 7 
48.592815 77.710907 485.980133 7 7 7 
48.801979 77.718834 486.025848 7 7 7 
49.002491 77.712990 485.985382 9 9 9 
49.202175 77.705879 485.937042 8 8 8 
49.395973 77.689583 485.831268 8 8 8 
49.595638 77.682579 485.783539 9 9 9 
49.782112 77.655106 485.607819 10 10 10 
49.987114 77.656609 485.613251 10 10 10 
50.193470 77.660202 485.631775 10 10 10 
50.382061 77.636398 485.478943 10 10 10 
50.576805 77.622231 485.386383 10 10 10 
50.778553 77.618866 485.361298 12 12 12 
50.980316 77.615555 485.336548 11 11 11 
51.168736 77.592072 485.185730 11 11 11 
51.361282 77.574944 485.074585 10 10 10 
51.566429 77.576965 485.083099 10 10 10 
51.751629 77.549072 484.904663 10 10 10 
51.952328 77.544510 484.872009 11 11 11 
52.157238 77.546249 484.878815 12 12 12 
52.361031 77.546326 484.875153 10 10 10 
52.554131 77.530640 484.772919 12 12 12 
52.752689 77.523071 484.721466 11 11 11 
52.942101 77.502205 484.586823 12 12 12 
53.145733 77.502213 484.582703 12 12 12 
53.331108 77.475708 484.412750 10 10 10 
53.541573 77.485710 484.471130 10 10 10 
53.727051 77.459602 484.303619 11 11 11 
53.931129 77.460403 484.304413 12 12 12 
54.136196 77.462662 484.314270 10 10 10 
54.325089 77.441811 484.179657 9 9 9 
54.519455 77.428864 484.094421 9 9 9 
54.720417 77.425392 484.068420 10 10 10 
54.925518 77.427742 484.078857 8 8 8 
55.125458 77.422844 484.043884 8 8 8 
55.310661 77.397369 483.880249 8 8 8 
55.506092 77.386345 483.806946 7 7 7 
55.701237 77.374969 483.731537 9 9 9 
55.913414 77.387306 483.804230 7 7 7 
56.109562 77.377426 483.738037 7 7 7 
56.299149 77.358589 483.615906 6 6 6 
56.507622 77.365730 483.656128 5 5 5 
56.695778 77.345139 483.522980 5 5 5 
56.904827 77.353073 483.568115 4 4 4 
57.086006 77.323212 483.376923 4 4 4 
57.275887 77.305313 483.260559 5 5 5 
57.462482 77.283119 483.117371 5 5 5 
57.651611 77.264465 482.996216 4 4 4 
58.083595 77.299057 483.203400 4 4 4 
58.453236 77.250801 482.892670 5 5 5 
58.662678 77.259346 482.941437 4 4 4 
58.855640 77.246193 482.854645 5 5 5 
59.046719 77.230675 482.753021 2 2 2 
59.258617 77.242416 482.821777 4 4 4 
59.491901 77.281822 483.063477 5 5 5 
60.823246 77.167763 482.317688 3 3 3 
61.774036 77.089302 481.803375 4 4 4 
61.982563 77.096771 481.845276 4 4 4 
62.197578 77.112236 481.937042 4 4 4 
62.368977 77.073685 481.691315 3 3 3 
62.550941 77.048416 481.528503 5 5 5 
62.756020 77.051697 481.544128 4 4 4 
62.973385 77.069962 481.653412 4 4 4 
63.158386 77.048676 481.515442 4 4 4 
63.368835 77.058441 481.571564 5 5 5 
63.564140 77.049767 481.512451 5 5 5 
63.758732 77.040337 481.448486 3 3 3 
64.124557 76.993546 481.146149 4 4 4 
64.307381 76.970268 480.995728 3 3 3 
64.520897 76.983749 481.074951 3 3 3 
64.720032 76.980072 481.046997 3 3 3 
65.086914 76.935638 480.759277 4 4 4 
65.272491 76.916138 480.632324 3 3 3 
65.504120 76.950859 480.844208 3 3 3 
65.700066 76.943604 480.793823 4 4 4 
65.902657 76.944115 480.791870 4 4 4 
66.095428 76.933228 480.718750 4 4 4 
66.299683 76.935699 480.729065 5 5 5 
66.477898 76.908081 480.551361 5 5 5 
66.666519 76.892601 480.449493 5 5 5 
66.848328 76.869362 480.299164 5 5 5 
67.063622 76.884689 480.389679 6 6 6 
67.279099 76.900116 480.480835 6 6 6 
67.454414 76.869690 480.285522 5 5 5 
67.654869 76.867973 480.269623 5 5 5 
67.859016 76.870499 480.280182 6 6 6 
68.045975 76.853569 480.169189 5 5 5 
68.255875 76.862595 480.220276 5 5 5 
68.438095 76.840477 480.076813 4 4 4 
68.622116 76.820503 479.946716 5 5 5 
68.803757 76.797981 479.800720 4 4 4 
69.020981 76.815201 479.903015 4 4 4 
69.223953 76.816528 479.905914 4 4 4 
69.623428 76.811996 479.866882 4 4 4 
69.810280 76.795540 479.758728 2 2 2 
70.013634 76.797318 479.764465 3 3 3 
70.202568 76.783333 479.671661 2 2 2 
70.380386 76.757263 479.503448 4 4 4 
70.803978 76.779274 479.630096 5 5 5 
70.983383 76.755188 479.474182 6 6 6 
71.191353 76.762024 479.511383 6 6 6 
71.386856 76.755409 479.464630 6 6 6 
71.569199 76.734711 479.329803 5 5 5 
71.771271 76.735260 479.327728 6 6 6 
71.935959 76.695930 479.076538 5 5 5 
72.156975 76.716721 479.200806 5 5 5 
72.334747 76.691513 479.037872 6 6 6 
72.537941 76.693359 479.043793 6 6 6 
72.740181 76.694176 479.043335 6 6 6 
72.939056 76.691437 479.020599 7 7 7 
73.119835 76.669754 478.879608 7 7 7 
73.320969 76.669456 478.872162 7 7 7 
73.520096 76.667099 478.851776 7 7 7 
73.710640 76.655815 478.775665 7 7 7 
73.917877 76.661919 478.808136 6 6 6 
74.094337 76.636131 478.641388 7 7 7 
74.291969 76.632332 478.612030 6 6 6 
74.479523 76.618172 478.517883 8 8 8 
74.697922 76.635773 478.622101 7 7 7 
74.875862 76.611847 478.466949 5 5 5 
75.077988 76.612747 478.466858 5 5 5 
75.289673 76.623360 478.527374 6 6 6 
75.460526 76.592491 478.328857 4 4 4 
75.649391 76.580002 478.245117 4 4 4 
75.839813 76.569168 478.171631 4 4 4 
76.047493 76.575745 478.206940 4 4 4 
76.263580 76.590736 478.294739 4 4 4 
76.613838 76.538681 477.958008 5 5 5 
76.801826 76.525650 477.870758 4 4 4 
77.015205 76.537971 477.941772 5 5 5 
77.229210 76.550812 478.016083 5 5 5 
77.396469 76.517349 477.801300 7 7 7 
77.601662 76.521477 477.821198 8 8 8 
77.782295 76.501472 477.690338 6 6 6 
77.968323 76.486809 477.592865 6 6 6 
78.170822 76.488373 477.596710 8 8 8 
78.347328 76.464539 477.441956 8 8 8 
78.584938 76.500336 477.659424 7 7 7 
78.768623 76.483574 477.548859 5 5 5 
78.972588 76.486534 477.561279 6 6 6 
79.154114 76.467796 477.438354 8 8 8 
79.334038 76.447624 477.306396 5 5 5 
79.523476 76.436699 477.232086 5 5 5 
79.718666 76.431351 477.192688 7 7 7 
79.899971 76.412743 477.070465 6 6 6 
80.109756 76.421379 477.118317 7 7 7 
80.310913 76.421806 477.114868 6 6 6 
80.521896 76.431519 477.169434 6 6 6 
80.723923 76.432724 477.170837 9 9 9 
80.907516 76.416489 477.063416 6 6 6 
81.094826 76.403839 476.978302 6 6 6 
81.257935 76.368530 476.751678 7 7 7 
81.459496 76.369446 476.751251 5 5 5 
81.657967 76.367477 476.732788 7 7 7 
81.879265 76.386787 476.847168 5 5 5 
82.048958 76.357956 476.661041 6 6 6 
82.255692 76.363701 476.690643 6 6 6 
82.417809 76.328072 476.462036 6 6 6 
82.637230 76.345573 476.565033 8 8 8 
82.833206 76.341377 476.532623 7 7 7 
83.016083 76.325150 476.425049 6 6 6 
83.221329 76.329521 476.446106 8 8 8 
83.408318 76.317169 476.362732 7 7 7 
83.597572 76.306961 476.292694 6 6 6 
83.771233 76.282578 476.134216 8 8 8 
84.003494 76.311554 476.308777 8 8 8 
84.194046 76.302582 476.246429 7 7 7 
84.402122 76.309525 476.283417 7 7 7 
84.589897 76.298103 476.205780 7 7 7 
84.766876 76.277008 476.067780 6 6 6 
84.962265 76.272583 476.033722 7 7 7 
85.169701 76.278931 476.066986 6 6 6 
85.354721 76.265251 475.975159 6 6 6 
85.542877 76.254395 475.901001 8 8 8 
85.730721 76.243324 475.825470 8 8 8 
85.921959 76.235329 475.769135 7 7 7 
86.135239 76.246887 475.834808 7 7 7 
86.323982 76.236702 475.764771 5 5 5 
86.506271 76.220879 475.659576 7 7 7 
86.707405 76.221710 475.658295 7 7 7 
86.899361 76.214485 475.606750 6 6 6 
87.082848 76.199890 475.509094 7 7 7 
87.294800 76.210182 475.566833 9 9 9 
87.506729 76.220436 475.624298 7 7 7 
87.674606 76.192360 475.442505 7 7 7 
87.862915 76.182106 475.372009 6 6 6 
88.070724 76.188812 475.407196 7 7 7 
88.255913 76.175926 475.320221 8 8 8 
88.457626 76.177330 475.322418 7 7 7 
88.647385 76.168472 475.260529 6 6 6 
88.839279 76.161469 475.210236 7 7 7 
89.045326 76.166618 475.235687 7 7 7 
89.238197 76.160484 475.190826 10 10 10 
89.453751 76.173706 475.266632 8 8 8 
89.617142 76.142555 475.065613 6 6 6 
89.803047 76.130623 474.984406 6 6 6 
89.970047 76.102753 474.803894 6 6 6 
90.167000 76.100266 474.781738 4 4 4 
90.361885 76.096077 474.748840 7 7 7 
90.546143 76.082985 474.660431 8 8 8 
90.752518 76.088470 474.687897 10 10 10 
90.955917 76.091446 474.699738 10 10 10 
91.158684 76.093895 474.708252 10 10 10 
91.360291 76.095352 474.710571 10 10 10 
91.561867 76.096771 474.712677 10 10 10 
91.750397 76.087387 474.647339 7 7 7 
91.958191 76.093971 474.681580 4 4 4 
95.542137 75.924637 473.493866 3 3 3 
95.766335 75.944305 473.609497 4 4 4 
95.954781 75.935616 473.548218 3 3 3 
96.185501 75.960335 473.695374 3 3 3 
96.373566 75.951347 473.632172 3 3 3 
96.543167 75.927834 473.478546 3 3 3 
127.038795 75.099686 467.064789 3 3 3 
127.269173 75.119324 467.178314 4 4 4 
127.476372 75.125221 467.206543 3 3 3 
127.876328 75.128494 467.209930 4 4 4 
128.067627 75.125038 467.179901 4 4 4 
128.226654 75.102676 467.032318 3 3 3 
128.386139 75.080666 466.886932 3 3 3 
128.567871 75.071716 466.822723 4 4 4 
128.747635 75.061630 466.751495 4 4 4 
128.988388 75.087105 466.901276 4 4 4 
129.205231 75.098579 466.964111 4 4 4 
129.366241 75.077629 466.825317 4 4 4 
129.520828 75.053001 466.663666 4 4 4 
129.744476 75.068428 466.750977 4 4 4 
129.934631 75.064461 466.717712 5 5 5 
130.135635 75.066750 466.723419 4 4 4 
130.308945 75.053093 466.629883 3 3 3 
130.491043 75.044525 466.567993 5 5 5 
130.687897 75.044456 466.558990 5 5 5 
130.901108 75.053772 466.608276 4 4 4 
131.122101 75.067520 466.685150 3 3 3 
131.938293 74.971519 466.045319 2 2 2 
132.492966 74.951347 465.893982 3 3 3 
134.018646 75.034592 466.350739 2 2 2 
144.991653 74.702515 463.769073 3 3 3 
145.216858 74.717545 463.853485 3 3 3 
145.415268 74.718750 463.852142 3 3 3 
145.620102 74.723259 463.871216 5 5 5 
145.772064 74.700661 463.722015 4 4 4 
146.171082 74.704239 463.726501 3 3 3 
146.902710 74.777328 464.153534 3 3 3 
147.305557 74.683159 463.542328 2 2 2 
147.531479 74.698334 463.627594 3 3 3 
-17.450508 79.242310 494.682434 17 17 17 
-17.223778 79.154732 494.136963 31 31 31 
-16.985819 79.012733 493.251770 44 44 44 
-16.753021 78.891594 492.496826 49 49 49 
-16.526237 78.796074 491.901672 53 53 53 
-16.302935 78.714989 491.396729 58 58 58 
-16.080395 78.635513 490.901764 60 60 60 
-15.859354 78.561417 490.440277 63 63 63 
-15.640972 78.498711 490.049988 67 67 67 
-15.422954 78.436188 489.660797 70 70 70 
-15.207041 78.382828 489.328857 72 72 72 
-14.991255 78.328697 488.991974 76 76 76 
-14.776240 78.277153 488.671234 77 77 77 
-14.562504 78.230942 488.383850 83 83 83 
-14.349414 78.187042 488.110779 82 82 82 
-14.137130 78.146233 487.857117 85 85 85 
-13.924747 78.103699 487.592560 88 88 88 
-13.713243 78.064896 487.351288 88 88 88 
-13.502389 78.028679 487.126221 92 92 92 
-13.291941 77.993752 486.909088 94 94 94 
-13.081965 77.960548 486.702759 95 95 95 
-12.872088 77.926895 486.493561 95 95 95 
-12.662763 77.895554 486.298828 96 96 96 
-12.454279 77.868362 486.130035 100 100 100 
-12.245232 77.836792 485.933807 99 99 99 
-12.037325 77.811447 485.776428 100 100 100 
-11.828594 77.779907 485.580353 103 103 103 
-11.621826 77.760307 485.458832 99 99 99 
-11.414317 77.734978 485.301483 100 100 100 
-11.207222 77.711601 485.156311 105 105 105 
-10.999947 77.686172 484.998352 103 103 103 
-10.793181 77.663383 484.856842 101 101 101 
-10.586403 77.639526 484.708679 106 106 106 
-10.380096 77.618385 484.577362 111 111 111 
-10.174531 77.602036 484.476044 106 106 106 
-9.969048 77.585670 484.374603 111 111 111 
-9.763492 77.567955 484.264709 108 108 108 
-9.558041 77.550453 484.156036 110 110 110 
-9.352397 77.530594 484.032745 108 108 108 
-9.147551 77.516518 483.945496 110 110 110 
-8.942198 77.497414 483.826843 109 109 109 
-8.737318 77.481735 483.729584 109 109 109 
-8.532516 77.465912 483.631348 111 111 111 
-8.327961 77.451614 483.542725 112 112 112 
-8.123151 77.434181 483.434418 109 109 109 
-7.919210 77.424507 483.374512 112 112 112 
-7.714853 77.409996 483.284485 112 112 112 
-7.510982 77.399742 483.220917 112 112 112 
-7.307002 77.387741 483.146545 110 110 110 
-7.103265 77.377724 483.084503 112 112 112 
-6.899163 77.363045 482.993256 111 111 111 
-6.695948 77.357574 482.959595 113 113 113 
-6.492189 77.345451 482.884308 113 113 113 
-6.289035 77.339989 482.850555 112 112 112 
-6.085483 77.329094 482.782990 109 109 109 
-5.882264 77.321693 482.737122 110 110 110 
-5.679426 77.319115 482.721375 109 109 109 
-5.476050 77.308746 482.657074 111 111 111 
-5.272866 77.300247 482.604279 111 111 111 
-5.070016 77.296333 482.580170 109 109 109 
-4.867162 77.291855 482.552521 109 109 109 
-4.664347 77.287834 482.527710 110 110 110 
-4.461420 77.281311 482.487274 105 105 105 
-4.258616 77.276627 482.458252 108 108 108 
-4.055964 77.274155 482.443024 111 111 111 
-3.853174 77.268883 482.410339 113 113 113 
-3.650793 77.271439 482.426514 108 108 108 
-3.447958 77.264145 482.381165 107 107 107 
-3.245405 77.262917 482.373718 109 109 109 
-3.042878 77.261909 482.367584 110 110 110 
-2.840249 77.257980 482.343201 109 109 109 
-2.637694 77.255981 482.330811 107 107 107 
-2.435328 77.259247 482.351318 108 108 108 
-2.232825 77.258392 482.346069 112 112 112 
-2.030295 77.256813 482.336273 106 106 106 
-1.827844 77.257729 482.342072 103 103 103 
-1.625337 77.256187 482.332489 107 107 107 
-1.422897 77.257835 482.342743 104 104 104 
-1.220526 77.265175 482.388672 103 103 103 
-1.018033 77.265305 482.389465 106 106 106 
-0.815578 77.269073 482.412933 106 106 106 
-0.613077 77.269524 482.415710 103 103 103 
-0.410599 77.277046 482.462616 102 102 102 
