ply
format ascii 1.0
comment Created by CloudCompare v2.13.alpha
comment Created 2023-12-11T16:54:18
obj_info Generated by CloudCompare!
element vertex 1138
property float x
property float y
property float z
property uchar red
property uchar green
property uchar blue
end_header
-142.495468 58.148720 518.894287 4 4 4 
-142.292648 58.155159 518.961731 3 3 3 
-141.873520 58.162590 519.047974 4 4 4 
-140.012360 58.116180 518.712708 3 3 3 
-139.785126 58.112549 518.690125 3 3 3 
-138.427170 58.092812 518.572754 4 4 4 
-137.802826 58.105843 518.718323 3 3 3 
-137.581635 58.104702 518.717834 3 3 3 
-136.371750 58.054665 518.319641 4 4 4 
-136.165665 58.059864 518.375732 4 4 4 
-135.891281 58.035912 518.171570 3 3 3 
-135.532745 58.069286 518.488892 3 3 3 
-135.326508 58.074490 518.544922 4 4 4 
-130.038773 57.956360 517.708496 3 3 3 
-128.692047 57.938797 517.607666 4 4 4 
-127.829117 57.942711 517.679749 5 5 5 
-127.621445 57.947350 517.730530 4 4 4 
-127.399384 57.945465 517.722900 5 5 5 
-127.153557 57.932751 517.618530 3 3 3 
-126.263985 57.924473 517.581299 4 4 4 
-125.736008 57.881989 517.220032 3 3 3 
-125.556099 57.899403 517.384827 4 4 4 
-125.318939 57.890442 517.313904 3 3 3 
-124.780922 57.943920 517.819092 3 3 3 
-123.571823 57.887951 517.364319 4 4 4 
-123.372757 57.896713 517.451599 4 4 4 
-123.070465 57.856968 517.105469 5 5 5 
-122.365715 57.832428 516.913086 4 4 4 
-121.800926 57.874142 517.312744 4 4 4 
-121.559586 57.862865 517.220947 4 4 4 
-121.322586 57.853645 517.147400 4 4 4 
-120.867981 57.844360 517.082214 5 5 5 
-120.674675 57.856003 517.195129 4 4 4 
-120.481995 57.867962 517.310974 5 5 5 
-120.248489 57.860352 517.251770 5 5 5 
-120.000618 57.845764 517.130249 4 4 4 
-119.378021 57.860386 517.287415 4 4 4 
-68.255928 56.282932 504.775146 25 25 25 
-68.014572 56.258568 504.561951 41 41 41 
-67.764961 56.227184 504.285828 49 49 49 
-67.468971 56.157005 503.661682 53 53 53 
-67.167984 56.082207 502.996155 53 53 53 
-66.884644 56.021732 502.459076 62 62 62 
-66.612450 55.970242 502.002411 66 66 66 
-66.342094 55.919964 501.556763 65 65 65 
-66.079697 55.876106 501.168549 68 68 68 
-65.822166 55.836090 500.814819 72 72 72 
-65.570183 55.800533 500.501068 72 72 72 
-65.321220 55.767330 500.208405 77 77 77 
-65.070335 55.732292 499.899170 77 77 77 
-64.823463 55.700436 499.618591 79 79 79 
-64.577675 55.669338 499.344727 81 81 81 
-64.338860 55.644051 499.123016 81 81 81 
-64.101479 55.619854 498.911011 84 84 84 
-63.862122 55.593773 498.682098 83 83 83 
-63.627689 55.571812 498.490143 87 87 87 
-63.393066 55.549576 498.295563 86 86 86 
-63.155964 55.524982 498.079987 88 88 88 
-62.924496 55.505199 497.907471 88 88 88 
-62.689236 55.481930 497.703735 90 90 90 
-62.462074 55.465694 497.562958 86 86 86 
-62.231388 55.446213 497.393127 90 90 90 
-62.003044 55.428699 497.240936 92 92 92 
-61.774319 55.410728 497.084534 91 91 91 
-61.547623 55.394459 496.943451 92 92 92 
-61.322453 55.379440 496.813660 96 96 96 
-61.101635 55.368290 496.718384 98 98 98 
-60.875267 55.352016 496.577148 94 94 94 
-60.654102 55.340366 496.477417 94 94 94 
-60.431099 55.326950 496.361847 97 97 97 
-60.208992 55.314255 496.252777 96 96 96 
-59.983593 55.298473 496.115814 98 98 98 
-59.762886 55.286896 496.016693 99 99 99 
-59.542995 55.276001 495.923645 99 99 99 
-59.322529 55.264507 495.825165 101 101 101 
-59.106514 55.257072 495.763184 97 97 97 
-58.887566 55.246845 495.676025 98 98 98 
-58.669567 55.237442 495.596344 102 102 102 
-58.448807 55.225342 495.492462 100 100 100 
-58.235626 55.220383 495.452484 102 102 102 
-58.017551 55.210709 495.370239 102 102 102 
-57.802822 55.204144 495.315979 102 102 102 
-57.590378 55.199741 495.281006 100 100 100 
-57.373405 55.190952 495.206696 101 101 101 
-57.157898 55.183517 495.144440 102 102 102 
-56.943523 55.177113 495.091522 104 104 104 
-56.730286 55.171780 495.048187 105 105 105 
-56.517006 55.166367 495.004028 104 104 104 
-56.306149 55.163292 494.980865 102 102 102 
-56.095856 55.160732 494.962372 103 103 103 
-55.883408 55.156033 494.924591 102 102 102 
-55.671059 55.151394 494.887390 101 101 101 
-55.459000 55.147034 494.852631 104 104 104 
-55.252018 55.147671 494.862762 101 101 101 
-55.040516 55.143822 494.832520 105 105 105 
-54.832123 55.143055 494.829956 105 105 105 
-54.621353 55.139862 494.805725 106 106 106 
-54.410866 55.136955 494.783875 106 106 106 
-54.200603 55.134262 494.763977 104 104 104 
-53.991531 55.132736 494.754639 102 102 102 
-53.784908 55.133732 494.767761 106 106 106 
-53.574467 55.130798 494.745758 104 104 104 
-53.366455 55.130356 494.745972 98 98 98 
-53.158768 55.130257 494.749237 106 106 106 
-52.952789 55.131924 494.768463 101 101 101 
-52.747917 55.134758 494.798096 100 100 100 
-52.539898 55.134319 494.798218 104 104 104 
-52.332138 55.134155 494.800934 100 100 100 
-52.124084 55.133671 494.800720 101 101 101 
-51.921436 55.138927 494.851929 101 101 101 
-51.717342 55.142696 494.889832 103 103 103 
-51.512501 55.145672 494.920654 99 99 99 
-51.306263 55.147186 494.938324 101 101 101 
-51.100513 55.149227 494.960754 101 101 101 
-50.896988 55.153717 495.005005 100 100 100 
-50.692413 55.157074 495.039215 98 98 98 
-50.487881 55.160522 495.074158 96 96 96 
-50.283897 55.164612 495.114807 97 97 97 
-50.081024 55.169941 495.166626 95 95 95 
-49.877201 55.174271 495.209473 101 101 101 
-49.673035 55.178268 495.249237 95 95 95 
-49.472355 55.186169 495.324127 95 95 95 
-49.270676 55.193035 495.389587 96 96 96 
-49.065132 55.195599 495.416443 93 93 93 
-48.866703 55.206234 495.515808 91 91 91 
-48.664318 55.212448 495.575470 91 91 91 
-48.462521 55.219418 495.641846 89 89 89 
-48.261070 55.226833 495.712189 91 91 91 
-48.059479 55.234142 495.781677 88 88 88 
-47.858936 55.242729 495.862488 89 89 89 
-47.658264 55.251244 495.942657 90 90 90 
-47.460007 55.262657 496.048828 86 86 86 
-47.259563 55.271603 496.132935 84 84 84 
-47.059856 55.281498 496.225464 85 85 85 
-46.857174 55.287941 496.287109 80 80 80 
-46.663612 55.305298 496.446533 83 83 83 
-46.462135 55.313374 496.522644 79 79 79 
-46.264317 55.325878 496.638672 83 83 83 
-46.065964 55.337860 496.749908 80 80 80 
-45.867004 55.349228 496.855560 81 81 81 
-45.668396 55.361137 496.966003 77 77 77 
-45.470856 55.374447 497.089142 76 76 76 
-45.273621 55.388248 497.216614 75 75 75 
-45.074917 55.400356 497.328918 73 73 73 
-44.877838 55.414608 497.460449 73 73 73 
-44.680161 55.428249 497.586365 72 72 72 
-44.484955 55.445099 497.741180 70 70 70 
-44.287231 55.458954 497.868988 69 69 69 
-44.094147 55.478783 498.050537 68 68 68 
-43.896709 55.493298 498.184265 65 65 65 
-43.704521 55.514591 498.378998 66 66 66 
-43.507694 55.530193 498.522461 63 63 63 
-43.311817 55.547161 498.678253 61 61 61 
-43.116787 55.565384 498.845306 60 60 60 
-42.924347 55.587143 499.044006 58 58 58 
-42.730370 55.607117 499.226715 56 56 56 
-42.536556 55.627510 499.413116 56 56 56 
-42.345203 55.651340 499.630402 54 54 54 
-42.152843 55.674049 499.837738 52 52 52 
-41.961311 55.698105 500.057037 51 51 51 
-41.770405 55.723236 500.285858 48 48 48 
-41.577751 55.746269 500.496002 49 49 49 
-41.388481 55.774097 500.749176 45 45 45 
-41.198730 55.801582 500.999115 45 45 45 
-41.012115 55.833595 501.289795 41 41 41 
-40.820770 55.859478 501.525391 40 40 40 
-40.633339 55.891006 501.811707 38 38 38 
-40.449352 55.927639 502.143829 36 36 36 
-40.263920 55.962624 502.461151 33 33 33 
-40.080677 56.001057 502.809357 31 31 31 
-39.894573 56.035854 503.124969 29 29 29 
-39.713234 56.077774 503.504517 24 24 24 
-39.535603 56.125397 503.935242 22 22 22 
-39.350311 56.162605 504.272430 21 21 21 
-39.174133 56.213276 504.730499 18 18 18 
-38.992695 56.256927 505.125458 14 14 14 
-38.813885 56.304855 505.558929 12 12 12 
-38.613789 56.322277 505.718384 10 10 10 
-168.900589 58.888096 522.328430 2 2 2 
-167.944550 58.862003 522.139832 2 2 2 
-167.563293 58.882866 522.346252 3 3 3 
-162.997025 58.746410 521.337769 3 3 3 
-152.418655 58.569176 520.245178 4 4 4 
-152.109650 58.534664 519.948853 4 4 4 
-151.870071 58.526798 519.889282 6 6 6 
-151.649979 58.526436 519.896362 9 9 9 
-151.402817 58.515606 519.810425 10 10 10 
-151.207443 58.524796 519.902283 7 7 7 
-150.971588 58.518322 519.855042 7 7 7 
-150.745300 58.515533 519.840576 6 6 6 
-150.515259 58.511299 519.813110 7 7 7 
-150.295959 58.511215 519.822632 7 7 7 
-150.087723 58.515450 519.870483 6 6 6 
-149.895706 58.526031 519.974670 7 7 7 
-149.603546 58.497486 519.731323 6 6 6 
-149.350754 58.484272 519.624084 4 4 4 
-149.131119 58.484039 519.632141 5 5 5 
-148.948700 58.498394 519.770020 6 6 6 
-148.675415 58.477074 519.590698 5 5 5 
-148.463791 58.479973 519.626587 5 5 5 
-148.238632 58.477539 519.615112 6 6 6 
-147.989471 58.465614 519.519348 5 5 5 
-147.789078 58.472958 519.594727 7 7 7 
-147.519577 58.452934 519.426941 4 4 4 
-147.294159 58.450348 519.414124 4 4 4 
-146.852936 58.448982 519.422119 4 4 4 
-146.604965 58.437386 519.329224 3 3 3 
-146.344193 58.420650 519.190552 4 4 4 
-146.132599 58.423523 519.226196 5 5 5 
-145.904343 58.419743 519.202637 3 3 3 
-145.707520 58.428535 519.290955 4 4 4 
-145.474380 58.422779 519.249817 4 4 4 
-144.383194 58.423916 519.310059 4 4 4 
-144.067291 58.384567 518.970337 4 4 4 
-143.841949 58.381870 518.956238 3 3 3 
-143.620361 58.380669 518.955566 6 6 6 
-143.404510 58.381813 518.975769 3 3 3 
-142.507141 58.372501 518.932739 3 3 3 
-142.292984 58.374321 518.958923 4 4 4 
-142.057907 58.367558 518.908752 4 4 4 
-141.860168 58.376152 518.995056 5 5 5 
-140.026428 58.340923 518.760742 4 4 4 
-139.255646 58.292694 518.361328 4 4 4 
-138.393967 58.297615 518.444214 5 5 5 
-137.262772 58.280910 518.344299 2 2 2 
-137.041870 58.279816 518.344238 5 5 5 
-136.780319 58.261387 518.190125 4 4 4 
-136.303162 58.244007 518.054871 5 5 5 
-136.095474 58.248497 518.104431 3 3 3 
-135.831741 58.228970 517.940430 3 3 3 
-135.584671 58.216534 517.839478 4 4 4 
-134.776352 58.244202 518.123962 5 5 5 
-134.539978 58.236336 518.063538 4 4 4 
-134.335968 58.242455 518.127625 3 3 3 
-133.805145 58.201378 517.781311 3 3 3 
-129.080536 58.135727 517.395264 3 3 3 
-128.880341 58.143673 517.475281 4 4 4 
-128.662491 58.143665 517.484497 4 4 4 
-128.455475 58.148575 517.537476 4 4 4 
-127.728416 58.115139 517.267700 4 4 4 
-127.550644 58.133347 517.439026 5 5 5 
-127.329185 58.131691 517.433472 3 3 3 
-126.557457 58.077381 516.977722 4 4 4 
-126.393761 58.102165 517.207520 5 5 5 
-126.216743 58.120892 517.383423 3 3 3 
-125.720581 58.092873 517.152344 6 6 6 
-125.523224 58.102287 517.245239 4 4 4 
-125.072914 58.095356 517.201782 4 4 4 
-124.347252 58.061440 516.927124 3 3 3 
-123.030807 58.056190 516.934631 4 4 4 
-122.768906 58.035225 516.756836 3 3 3 
-122.576828 58.047234 516.872864 4 4 4 
-122.339462 58.037823 516.797974 5 5 5 
-122.148460 58.050400 516.918945 4 4 4 
-121.893768 58.032703 516.770325 4 4 4 
-121.706741 58.047215 516.908447 4 4 4 
-121.490356 58.047749 516.922180 6 6 6 
-121.288124 58.055058 516.996216 5 5 5 
-121.020073 58.030861 516.789490 4 4 4 
-120.812439 58.035564 516.840332 4 4 4 
-120.566948 58.022083 516.729126 6 6 6 
-120.380394 58.036957 516.870544 5 5 5 
-120.201134 58.055424 517.043823 4 4 4 
-68.455780 56.485073 504.676666 22 22 22 
-68.219910 56.465199 504.504395 37 37 37 
-67.991577 56.451443 504.386871 46 46 46 
-67.694206 56.380112 503.754852 53 53 53 
-67.395882 56.307533 503.111633 56 56 56 
-67.107628 56.242954 502.539886 58 58 58 
-66.826752 56.184151 502.019745 63 63 63 
-66.559464 56.136448 501.598785 68 68 68 
-66.293144 56.089252 501.182251 71 71 71 
-66.031151 56.045433 500.795959 72 72 72 
-65.778709 56.009480 500.479828 77 77 77 
-65.529572 55.976101 500.186707 77 77 77 
-65.281403 55.943340 499.899139 79 79 79 
-65.034248 55.911255 499.617523 78 78 78 
-64.787819 55.879585 499.339569 81 81 81 
-64.544060 55.850006 499.080414 83 83 83 
-64.305046 55.824383 498.856384 85 85 85 
-64.063736 55.796543 498.612762 84 84 84 
-63.830124 55.775295 498.427856 86 86 86 
-63.592014 55.749943 498.206360 86 86 86 
-63.360348 55.730095 498.033966 87 87 87 
-63.129051 55.710442 497.863342 87 87 87 
-62.892380 55.685902 497.648926 92 92 92 
-62.661160 55.666039 497.476440 89 89 89 
-62.429321 55.645500 497.297760 90 90 90 
-62.203537 55.630230 497.166168 88 88 88 
-61.974285 55.611752 497.005920 94 94 94 
-61.747200 55.595097 496.861938 91 91 91 
-61.521908 55.579945 496.731415 94 94 94 
-61.298462 55.566387 496.614990 95 95 95 
-61.072639 55.550549 496.478333 94 94 94 
-60.851135 55.538540 496.375824 97 97 97 
-60.629295 55.526173 496.270020 96 96 96 
-60.407604 55.513832 496.164490 96 96 96 
-60.183491 55.499187 496.038330 96 96 96 
-59.960323 55.485294 495.918915 101 101 101 
-59.741550 55.475418 495.835297 99 99 99 
-59.519547 55.462440 495.724060 100 100 100 
-59.301327 55.452911 495.643524 98 98 98 
-59.085236 55.445328 495.580414 102 102 102 
-58.866585 55.435257 495.495026 99 99 99 
-58.646584 55.423862 495.397797 103 103 103 
-58.430374 55.415970 495.331940 101 101 101 
-58.211960 55.405914 495.246674 104 104 104 
-57.998180 55.400227 495.200378 101 101 101 
-57.785427 55.395481 495.162598 106 106 106 
-57.570469 55.388584 495.105438 103 103 103 
-57.354271 55.380436 495.037140 104 104 104 
-57.137779 55.371956 494.965851 106 106 106 
-56.925701 55.367710 494.932281 106 106 106 
-56.711105 55.360947 494.876404 104 104 104 
-56.498936 55.356525 494.841400 105 105 105 
-56.287746 55.353050 494.814728 106 106 106 
-56.076061 55.349045 494.783325 106 106 106 
-55.861652 55.342316 494.727600 105 105 105 
-55.652027 55.340294 494.713959 106 106 106 
-55.442234 55.338089 494.698608 103 103 103 
-55.233116 55.336552 494.689209 106 106 106 
-55.022663 55.333641 494.667572 105 105 105 
-54.812305 55.330818 494.646637 103 103 103 
-54.601452 55.327480 494.621094 105 105 105 
-54.391861 55.325394 494.606720 102 102 102 
-54.182163 55.323177 494.591217 101 101 101 
-53.972149 55.320629 494.572723 106 106 106 
-53.763908 55.319878 494.570313 106 106 106 
-53.555229 55.318687 494.563812 106 106 106 
-53.347515 55.318459 494.566071 103 103 103 
-53.140068 55.318523 494.570831 105 105 105 
-52.934898 55.320969 494.596924 105 105 105 
-52.725101 55.318581 494.579712 103 103 103 
-52.521072 55.322254 494.616638 102 102 102 
-52.312382 55.321011 494.609711 106 106 106 
-52.107666 55.323982 494.640442 103 103 103 
-51.903358 55.327431 494.675323 104 104 104 
-51.698002 55.329765 494.700287 103 103 103 
-51.492245 55.331696 494.721649 102 102 102 
-51.285343 55.332417 494.732117 103 103 103 
-51.081867 55.336834 494.775696 100 100 100 
-50.880547 55.343658 494.840668 101 101 101 
-50.674530 55.345394 494.860291 96 96 96 
-50.471588 55.350525 494.910095 98 98 98 
-50.266785 55.353645 494.941956 96 96 96 
-50.063950 55.358959 494.993469 96 96 96 
-49.859619 55.362663 495.030518 95 95 95 
-49.657841 55.369240 495.093323 99 99 99 
-49.455715 55.375496 495.153076 98 98 98 
-49.252003 55.380016 495.197479 95 95 95 
-49.051151 55.387798 495.270905 97 97 97 
-48.848763 55.393929 495.329559 94 94 94 
-48.648743 55.402771 495.412506 90 90 90 
-48.446339 55.408989 495.471924 90 90 90 
-48.244015 55.415337 495.532562 92 92 92 
-48.044128 55.424557 495.618866 90 90 90 
-47.840664 55.429726 495.668823 88 88 88 
-47.642269 55.440830 495.771881 87 87 87 
-47.441544 55.449314 495.851471 88 88 88 
-47.242779 55.460175 495.952332 86 86 86 
-47.041748 55.468456 496.030090 86 86 86 
-46.844604 55.481411 496.149689 85 85 85 
-46.642891 55.489037 496.221619 86 86 86 
-46.446991 55.503708 496.356445 85 85 85 
-46.247047 55.513641 496.448944 81 81 81 
-46.046978 55.523510 496.540802 80 80 80 
-45.849003 55.536003 496.656158 81 81 81 
-45.651241 55.548870 496.774872 79 79 79 
-45.454556 55.563179 496.906494 75 75 75 
-45.255749 55.575020 497.015869 78 78 78 
-45.061066 55.592041 497.171753 74 74 74 
-44.861691 55.603428 497.277100 74 74 74 
-44.664898 55.618118 497.412048 72 72 72 
-44.468422 55.633354 497.551819 69 69 69 
-44.270672 55.647129 497.678528 71 71 71 
-44.074089 55.662498 497.819519 68 68 68 
-43.878273 55.679005 497.970551 67 67 67 
-43.683174 55.696575 498.131226 65 65 65 
-43.485851 55.711464 498.267792 62 62 62 
-43.291325 55.730099 498.437897 62 62 62 
-43.098740 55.751427 498.632080 61 61 61 
-42.905399 55.771996 498.819458 61 61 61 
-42.711769 55.792381 499.005066 59 59 59 
-42.517685 55.812359 499.187195 56 56 56 
-42.328529 55.839035 499.429108 54 54 54 
-42.133121 55.857716 499.599487 52 52 52 
-41.940720 55.880569 499.807220 52 52 52 
-41.749870 55.905724 500.035522 52 52 52 
-41.558361 55.930264 500.258301 50 50 50 
-41.367729 55.956219 500.493774 48 48 48 
-41.179794 55.986126 500.764496 46 46 46 
-40.990211 56.014061 501.017700 43 43 43 
-40.799919 56.041332 501.264801 43 43 43 
-40.612888 56.073383 501.554718 40 40 40 
-40.426754 56.107021 501.858795 37 37 37 
-40.242168 56.143169 502.185242 34 34 34 
-40.056015 56.177494 502.495483 33 33 33 
-39.872730 56.216236 502.845123 31 31 31 
-39.688206 56.253628 503.182800 27 27 27 
-39.508438 56.298195 503.584534 24 24 24 
-39.326553 56.340206 503.963470 22 22 22 
-39.148411 56.388058 504.394592 19 19 19 
-38.972610 56.439838 504.860901 17 17 17 
-38.783966 56.473476 505.164825 14 14 14 
-38.600830 56.515549 505.544281 12 12 12 
-168.845505 59.089725 522.154358 3 3 3 
-168.616714 59.086754 522.138855 2 2 2 
-167.122635 59.025955 521.665649 2 2 2 
-165.869522 59.049995 521.942078 3 3 3 
-163.475937 58.980896 521.437439 3 3 3 
-162.568954 58.971054 521.392761 3 3 3 
-152.027847 58.722675 519.665222 5 5 5 
-151.832870 58.731995 519.757996 7 7 7 
-151.581711 58.719574 519.658325 8 8 8 
-151.366730 58.721157 519.682556 10 10 10 
-151.140533 58.718369 519.668274 7 7 7 
-150.932678 58.722733 519.717102 7 7 7 
-150.685852 58.711914 519.631592 6 6 6 
-150.455368 58.707447 519.602295 6 6 6 
-150.241333 58.709389 519.629700 6 6 6 
-150.039490 58.716110 519.699402 7 7 7 
-149.848511 58.727112 519.807007 5 5 5 
-149.282028 58.676689 519.381042 5 5 5 
-149.084869 58.685242 519.466980 7 7 7 
-148.888031 58.693958 519.554260 10 10 10 
-148.641144 58.682938 519.466919 7 7 7 
-148.398209 58.673450 519.393005 7 7 7 
-148.158920 58.665382 519.331726 6 6 6 
-147.927170 58.660263 519.296631 5 5 5 
-147.684326 58.650734 519.222412 6 6 6 
-147.492050 58.661297 519.325989 5 5 5 
-147.201675 58.632813 519.083923 4 4 4 
-147.006592 58.642254 519.177612 4 4 4 
-146.788330 58.642464 519.189575 5 5 5 
-146.556152 58.637112 519.152283 5 5 5 
-146.327133 58.633007 519.126038 5 5 5 
-146.110641 58.633915 519.144104 5 5 5 
-145.898666 58.636639 519.178345 5 5 5 
-145.677933 58.635853 519.181458 3 3 3 
-144.743500 58.611835 519.008850 4 4 4 
-144.547592 58.621059 519.100647 4 4 4 
-144.293335 58.606636 518.982910 4 4 4 
-144.061783 58.601391 518.946472 5 5 5 
-143.804932 58.585831 518.818665 5 5 5 
-143.581711 58.583946 518.811951 5 5 5 
-143.357040 58.581459 518.799866 4 4 4 
-143.134369 58.579796 518.795044 5 5 5 
-142.899612 58.573154 518.746216 5 5 5 
-142.680283 58.572834 518.753357 3 3 3 
-142.482132 58.581230 518.837585 4 4 4 
-142.229431 58.567181 518.723083 3 3 3 
-141.996506 58.561245 518.680420 3 3 3 
-141.256760 58.526360 518.401123 4 4 4 
-140.826080 58.528896 518.443298 4 4 4 
-140.605927 58.528164 518.446655 4 4 4 
-139.261353 58.513813 518.378479 3 3 3 
-138.746918 58.481060 518.107788 3 3 3 
-138.523849 58.479019 518.099426 4 4 4 
-138.320923 58.485477 518.166504 4 4 4 
-138.070847 58.471996 518.056824 3 3 3 
-137.643539 58.475876 518.110596 3 3 3 
-137.465836 58.493107 518.273010 3 3 3 
-137.204575 58.474792 518.120422 2 2 2 
-136.718002 58.453358 517.949890 3 3 3 
-136.442719 58.428890 517.742676 4 4 4 
-136.257416 58.442928 517.876831 5 5 5 
-136.048752 58.446991 517.922424 4 4 4 
-135.811813 58.438889 517.860291 5 5 5 
-133.502609 58.382813 517.459106 3 3 3 
-131.970993 58.380001 517.500671 3 3 3 
-129.041183 58.336094 517.233337 3 3 3 
-128.845108 58.345913 517.329651 4 4 4 
-128.611511 58.338726 517.275330 3 3 3 
-128.152344 58.327953 517.198364 4 4 4 
-127.692528 58.316814 517.118103 5 5 5 
-127.451332 58.306049 517.031921 5 5 5 
-126.534431 58.284710 516.879456 5 5 5 
-126.311287 58.282139 516.865784 7 7 7 
-126.181946 58.322914 517.236572 4 4 4 
-125.642204 58.274529 516.825684 4 4 4 
-125.204529 58.273304 516.833130 3 3 3 
-125.026123 58.291542 517.004028 5 5 5 
-122.487160 58.222450 516.490540 3 3 3 
-122.264168 58.219753 516.475647 5 5 5 
-122.044922 58.218853 516.476501 4 4 4 
-121.822174 58.216259 516.462463 3 3 3 
-121.612274 58.219826 516.502991 4 4 4 
-121.425873 58.234669 516.643555 4 4 4 
-121.220474 58.240433 516.703613 4 4 4 
-121.008362 58.242985 516.735168 4 4 4 
-120.724129 58.210777 516.458313 4 4 4 
-120.511719 58.213131 516.488098 6 6 6 
-120.303429 58.217522 516.535828 4 4 4 
-68.453369 56.695107 504.654419 32 32 32 
-68.224838 56.681232 504.536316 45 45 45 
-67.924675 56.607597 503.886139 54 54 54 
-67.622665 56.531948 503.218018 55 55 55 
-67.334618 56.467522 502.649902 58 58 58 
-67.048286 56.404148 502.091064 64 64 64 
-66.775093 56.351448 501.627197 65 65 65 
-66.508797 56.304272 501.212494 67 67 67 
-66.247505 56.261047 500.832855 74 74 74 
-65.991074 56.221672 500.487549 72 72 72 
-65.737663 56.184635 500.162964 76 76 76 
-65.486519 56.149307 499.853699 78 78 78 
-65.240990 56.118576 499.585266 79 79 79 
-64.998314 56.090122 499.337067 83 83 83 
-64.753174 56.059341 499.068115 82 82 82 
-64.512665 56.032398 498.833252 82 82 82 
-64.269791 56.003193 498.578339 84 84 84 
-64.035278 55.981140 498.386993 86 86 86 
-63.797768 55.956284 498.170837 88 88 88 
-63.564095 55.934650 497.983246 87 87 87 
-63.332001 55.914272 497.806763 90 90 90 
-63.097569 55.891682 497.610626 93 93 93 
-62.865463 55.871029 497.431641 88 88 88 
-62.630608 55.847763 497.229462 92 92 92 
-62.405502 55.833084 497.103668 91 91 91 
-62.173302 55.811916 496.920135 94 94 94 
-61.946808 55.795765 496.781219 97 97 97 
-61.719711 55.778957 496.636444 95 95 95 
-61.495693 55.764824 496.515442 96 96 96 
-61.270176 55.749237 496.381409 98 98 98 
-61.046608 55.735310 496.262268 99 99 99 
-60.825279 55.723339 496.160583 99 99 99 
-60.605957 55.713150 496.074554 99 99 99 
-60.383106 55.699623 495.958862 100 100 100 
-60.162495 55.688087 495.860901 98 98 98 
-59.938896 55.673691 495.737427 102 102 102 
-59.720459 55.663994 495.655823 103 103 103 
-59.499569 55.651951 495.553192 100 100 100 
-59.280338 55.641369 495.463745 104 104 104 
-59.063675 55.633144 495.395081 103 103 103 
-58.844994 55.622948 495.308929 102 102 102 
-58.625210 55.611641 495.212860 102 102 102 
-58.407288 55.602020 495.131836 106 106 106 
-58.191212 55.594093 495.065887 103 103 103 
-57.978714 55.589535 495.029877 105 105 105 
-57.766289 55.585030 494.994263 104 104 104 
-57.551411 55.578121 494.937225 107 107 107 
-57.336155 55.570786 494.876404 107 107 107 
-57.120182 55.562702 494.809052 109 109 109 
-56.905819 55.556137 494.755035 108 108 108 
-56.694973 55.552971 494.731323 106 106 106 
-56.480976 55.546669 494.679688 107 107 107 
-56.269108 55.542442 494.646454 108 108 108 
-56.055504 55.536453 494.597626 106 106 106 
-55.843407 55.531918 494.561646 110 110 110 
-55.632053 55.528103 494.532013 106 106 106 
-55.423618 55.527176 494.528137 106 106 106 
-55.214531 55.525593 494.518311 106 106 106 
-55.004559 55.523098 494.500488 108 108 108 
-54.790085 55.516022 494.441803 105 105 105 
-54.581310 55.514690 494.434296 105 105 105 
-54.372997 55.513817 494.430817 108 108 108 
-54.163307 55.511536 494.414734 104 104 104 
-53.955482 55.511154 494.415619 107 107 107 
-53.745579 55.508617 494.397278 107 107 107 
-53.539124 55.509644 494.410614 104 104 104 
-53.330132 55.508034 494.400574 107 107 107 
-53.124252 55.509670 494.419281 108 108 108 
-52.915993 55.508820 494.415894 107 107 107 
-52.708481 55.508747 494.419403 106 106 106 
-52.501408 55.509140 494.427063 108 108 108 
-52.296654 55.511997 494.456696 108 108 108 
-52.091164 55.514099 494.479462 107 107 107 
-51.886543 55.517136 494.510712 102 102 102 
-51.680603 55.518784 494.529449 106 106 106 
-51.473248 55.518929 494.534760 104 104 104 
-51.268433 55.521820 494.564606 101 101 101 
-51.065639 55.526947 494.614258 103 103 103 
-50.861980 55.531155 494.655792 103 103 103 
-50.659840 55.537064 494.712402 102 102 102 
-50.455418 55.540512 494.747162 101 101 101 
-50.250393 55.543331 494.776215 100 100 100 
-50.047058 55.548038 494.822083 100 100 100 
-49.843838 55.552906 494.869415 98 98 98 
-49.638596 55.555561 494.897034 100 100 100 
-49.439079 55.564686 494.982208 96 96 96 
-49.237282 55.571308 495.045044 96 96 96 
-49.032619 55.574722 495.079468 97 97 97 
-48.834370 55.585484 495.179108 92 92 92 
-48.633259 55.593056 495.250427 94 94 94 
-48.429443 55.597603 495.294739 91 91 91 
-48.229435 55.606567 495.378479 91 91 91 
-48.026283 55.611973 495.430450 92 92 92 
-47.825901 55.620659 495.511536 91 91 91 
-47.622772 55.626186 495.564636 91 91 91 
-47.425919 55.639145 495.683777 91 91 91 
-47.225101 55.647545 495.762390 90 90 90 
-47.027302 55.659580 495.873322 87 87 87 
-46.825623 55.667122 495.944183 85 85 85 
-46.626347 55.677597 496.041260 85 85 85 
-46.427265 55.688400 496.141174 85 85 85 
-46.228889 55.700161 496.249542 84 84 84 
-46.030815 55.712379 496.362122 80 80 80 
-45.829807 55.721142 496.443817 78 78 78 
-45.635540 55.738235 496.599731 83 83 83 
-45.436642 55.749786 496.706238 79 79 79 
-45.238506 55.762402 496.822174 77 77 77 
-45.040241 55.774960 496.937653 75 75 75 
-44.842987 55.788906 497.065430 75 75 75 
-44.646351 55.803741 497.201111 74 74 74 
-44.449574 55.818539 497.336456 72 72 72 
-44.254963 55.836220 497.497528 70 70 70 
-44.059174 55.852554 497.646576 69 69 69 
-43.861916 55.867199 497.780609 67 67 67 
-43.662727 55.879517 497.893707 68 68 68 
-43.467628 55.897190 498.054596 65 65 65 
-43.274124 55.917091 498.235474 62 62 62 
-43.081161 55.937901 498.424286 62 62 62 
-42.888119 55.958817 498.614075 61 61 61 
-42.692432 55.976471 498.774658 59 59 59 
-42.499989 55.998566 498.974915 58 58 58 
-42.306293 56.019230 499.162384 58 58 58 
-42.117905 56.047150 499.414520 56 56 56 
-41.923473 56.067284 499.597290 53 53 53 
-41.730255 56.089226 499.796112 52 52 52 
-41.540501 56.116096 500.038818 52 52 52 
-41.349926 56.142124 500.273926 49 49 49 
-41.159050 56.167984 500.507721 47 47 47 
-40.968040 56.193958 500.742310 47 47 47 
-40.781113 56.225796 501.029327 44 44 44 
-40.591698 56.254532 501.288605 42 42 42 
-40.407154 56.290352 501.611023 38 38 38 
-40.221664 56.325233 501.925049 35 35 35 
-40.038204 56.363338 502.267700 34 34 34 
-39.847046 56.390934 502.516846 33 33 33 
-39.662659 56.428459 502.854309 29 29 29 
-39.478260 56.466381 503.195465 26 26 26 
-39.296597 56.508652 503.575195 23 23 23 
-39.121193 56.560413 504.039612 22 22 22 
-38.938206 56.601723 504.410706 18 18 18 
-38.760715 56.651508 504.857483 16 16 16 
-38.581848 56.699818 505.291138 13 13 13 
-38.405937 56.753048 505.768463 11 11 11 
-168.848953 59.311760 522.161255 1 1 1 
-168.357025 59.293705 522.023682 2 2 2 
-167.349716 59.249027 521.672974 4 4 4 
-167.154648 59.257904 521.761780 2 2 2 
-166.710571 59.256546 521.771240 2 2 2 
-166.477676 59.252018 521.741943 2 2 2 
-162.682327 59.152706 521.037048 3 3 3 
-162.467957 59.154682 521.065002 2 2 2 
-162.196213 59.135738 520.908691 3 3 3 
-152.000427 58.931530 519.567566 7 7 7 
-151.782135 58.931824 519.580322 7 7 7 
-151.585037 58.940338 519.665710 6 6 6 
-151.308472 58.917957 519.478577 8 8 8 
-151.087006 58.916981 519.480286 7 7 7 
-150.834152 58.903755 519.373840 6 6 6 
-150.632843 58.910641 519.444824 8 8 8 
-150.394531 58.903057 519.388123 7 7 7 
-150.172760 58.901943 519.388550 7 7 7 
-149.966949 58.907093 519.444153 9 9 9 
-149.764832 58.913723 519.512756 5 5 5 
-149.491364 58.892250 519.333618 4 4 4 
-149.237564 58.878475 519.222351 5 5 5 
-149.051758 58.891525 519.347595 7 7 7 
-148.837723 58.893444 519.374695 6 6 6 
-148.581863 58.878803 519.255737 5 5 5 
-148.345779 58.871952 519.205505 6 6 6 
-148.098022 58.860458 519.114258 4 4 4 
-147.831924 58.841621 518.958252 5 5 5 
-147.656067 58.858711 519.119080 4 4 4 
-147.395813 58.842144 518.983093 5 5 5 
-147.205215 58.853394 519.092407 4 4 4 
-146.925598 58.829029 518.887573 4 4 4 
-146.763474 58.851704 519.097656 5 5 5 
-146.506012 58.836147 518.970642 5 5 5 
-146.296844 58.839985 519.014526 4 4 4 
-146.056061 58.831104 518.946228 5 5 5 
-145.807236 58.818932 518.848938 4 4 4 
-145.579178 58.815144 518.825439 4 4 4 
-145.287918 58.785751 518.576233 4 4 4 
-144.883530 58.798992 518.713135 5 5 5 
-144.698853 58.812775 518.844666 4 4 4 
-144.440933 58.796761 518.713501 5 5 5 
-144.212860 58.792900 518.689331 4 4 4 
-143.983414 58.788456 518.660095 5 5 5 
-143.788986 58.798306 518.757019 4 4 4 
-143.533218 58.783077 518.632629 8 8 8 
-143.333969 58.790974 518.712280 5 5 5 
-143.077881 58.775558 518.586182 4 4 4 
-142.883759 58.785583 518.684570 5 5 5 
-142.673447 58.788971 518.724426 6 6 6 
-142.440231 58.782913 518.680908 4 4 4 
-142.175751 58.763935 518.523254 4 4 4 
-141.709137 58.751606 518.434387 5 5 5 
-141.448639 58.734127 518.289978 4 4 4 
-141.242294 58.739113 518.343872 4 4 4 
-141.026535 58.740208 518.363342 4 4 4 
-139.894073 58.723179 518.262207 3 3 3 
-138.926010 58.683136 517.947937 5 5 5 
-138.707718 58.683083 517.957275 5 5 5 
-138.494247 58.685078 517.984619 5 5 5 
-138.246521 58.672527 517.883667 4 4 4 
-138.020340 58.669109 517.863159 5 5 5 
-137.840851 58.685562 518.018127 4 4 4 
-137.570709 58.663403 517.832214 4 4 4 
-137.132263 58.662449 517.843201 5 5 5 
-136.885773 58.650291 517.745544 3 3 3 
-136.679565 58.655376 517.800110 4 4 4 
-136.437378 58.645004 517.718262 5 5 5 
-136.215103 58.643188 517.711853 3 3 3 
-136.013443 58.650249 517.783875 4 4 4 
-135.757858 58.634048 517.650391 2 2 2 
-131.252457 58.569313 517.269165 3 3 3 
-130.471313 58.512001 516.791260 4 4 4 
-130.268219 58.518513 516.858093 3 3 3 
-130.064453 58.524750 516.922485 3 3 3 
-129.564438 58.495502 516.682861 4 4 4 
-129.132553 58.496937 516.714172 4 4 4 
-129.010712 58.540348 517.106995 3 3 3 
-128.762924 58.526672 516.995422 4 4 4 
-128.544312 58.526226 517.000793 4 4 4 
-128.329498 58.527523 517.021484 5 5 5 
-128.110397 58.526844 517.024841 4 4 4 
-127.427124 58.512928 516.929565 4 4 4 
-127.142921 58.482285 516.668030 2 2 2 
-126.888298 58.465176 516.526123 4 4 4 
-126.656898 58.458717 516.478271 4 4 4 
-126.253967 58.473476 516.627014 3 3 3 
-125.786942 58.458553 516.513489 3 3 3 
-125.589249 58.467728 516.603638 4 4 4 
-123.742088 58.416920 516.227234 3 3 3 
-123.324043 58.424717 516.314209 3 3 3 
-123.115700 58.428963 516.360718 4 4 4 
-122.889587 58.424774 516.332703 4 4 4 
-122.429420 58.412571 516.242798 4 4 4 
-122.176788 58.395653 516.102234 4 4 4 
-121.973938 58.402531 516.171875 4 4 4 
-121.738091 58.393578 516.101746 4 4 4 
-121.515198 58.390842 516.086426 4 4 4 
-121.330681 58.406548 516.234253 3 3 3 
-68.701569 56.937271 504.911774 25 25 25 
-68.452202 56.906166 504.641357 43 43 43 
-68.158943 56.838276 504.044678 51 51 51 
-67.855095 56.761082 503.365479 55 55 55 
-67.559433 56.690308 502.743073 59 59 59 
-67.277565 56.630680 502.219604 64 64 64 
-66.999428 56.573830 501.720703 69 69 69 
-66.727585 56.521961 501.265930 67 67 67 
-66.466446 56.478855 500.888855 75 75 75 
-66.208275 56.438000 500.531799 75 75 75 
-65.954758 56.400875 500.207764 75 75 75 
-65.701218 56.363503 499.881378 79 79 79 
-65.450035 56.327896 499.570801 80 80 80 
-65.206856 56.298992 499.319519 83 83 83 
-64.960228 56.266907 499.040039 83 83 83 
-64.717583 56.238068 498.789368 81 81 81 
-64.474716 56.208855 498.535370 83 83 83 
-64.239265 56.185944 498.337250 87 87 87 
-64.000145 56.159660 498.109131 87 87 87 
-63.769314 56.140495 497.944183 90 90 90 
-63.535400 56.118484 497.753937 91 91 91 
-63.303604 56.098217 497.579132 92 92 92 
-63.070015 56.076210 497.388885 93 93 93 
-62.838184 56.055630 497.211334 92 92 92 
-62.607380 56.035828 497.040649 93 93 93 
-62.380257 56.019211 496.898102 94 94 94 
-62.150925 56.000484 496.736938 94 94 94 
-61.922588 55.982540 496.582581 98 98 98 
-61.700031 55.969707 496.473572 98 98 98 
-61.474274 55.953880 496.338074 95 95 95 
-61.248005 55.937469 496.197327 98 98 98 
-61.024796 55.923767 496.080627 98 98 98 
-60.804539 55.912674 495.987061 100 100 100 
-60.582493 55.899860 495.878082 97 97 97 
-60.361786 55.888199 495.779358 102 102 102 
-60.138401 55.873966 495.657928 100 100 100 
-59.920826 55.865051 495.583588 100 100 100 
-59.700211 55.853233 495.483368 105 105 105 
-59.478313 55.840126 495.371826 105 105 105 
-59.256729 55.827221 495.262054 102 102 102 
-59.040154 55.818977 495.193481 103 103 103 
-58.821991 55.809139 495.110962 105 105 105 
-58.603424 55.798874 495.024475 103 103 103 
-58.387386 55.790939 494.958710 108 108 108 
-58.172077 55.783657 494.898682 103 103 103 
-57.957638 55.777153 494.845490 106 106 106 
-57.744320 55.771687 494.801605 110 110 110 
-57.530869 55.766068 494.756195 108 108 108 
-57.314491 55.757534 494.685089 106 106 106 
-57.100391 55.751179 494.633209 107 107 107 
-56.887844 55.746292 494.594330 107 107 107 
-56.673370 55.739479 494.538361 107 107 107 
-56.459621 55.733334 494.488342 108 108 108 
-56.247379 55.728642 494.451080 107 107 107 
-56.034447 55.723202 494.407318 105 105 105 
-55.823009 55.719250 494.376617 110 110 110 
-55.614548 55.718235 494.372009 109 109 109 
-55.405464 55.716587 494.361725 109 109 109 
-55.195591 55.714134 494.344299 105 105 105 
-54.985756 55.711693 494.327057 111 111 111 
-54.773460 55.706753 494.287445 110 110 110 
-54.563858 55.704487 494.271729 105 105 105 
-54.355797 55.703812 494.270050 106 106 106 
-54.147781 55.703178 494.268646 110 110 110 
-53.936028 55.698677 494.232941 105 105 105 
-53.730286 55.700371 494.252289 108 108 108 
-53.520866 55.698250 494.237732 107 107 107 
-53.313206 55.697956 494.239227 106 106 106 
-53.106518 55.698677 494.249878 108 108 108 
-52.901527 55.701183 494.276276 106 106 106 
-52.693680 55.700703 494.276184 108 108 108 
-52.487572 55.702061 494.292358 106 106 106 
-52.280525 55.702427 494.299774 103 103 103 
-52.074554 55.703945 494.317352 108 108 108 
-51.871117 55.708202 494.359222 105 105 105 
-51.662720 55.707142 494.353973 106 106 106 
-51.458057 55.710121 494.384430 106 106 106 
-51.252674 55.712341 494.408173 104 104 104 
-51.049133 55.716595 494.449951 103 103 103 
-50.846424 55.721790 494.500092 105 105 105 
-50.644085 55.727432 494.554199 103 103 103 
-50.438507 55.729546 494.576874 103 103 103 
-50.236000 55.735073 494.630005 103 103 103 
-50.030079 55.736866 494.649811 99 99 99 
-49.826046 55.740772 494.688416 108 108 108 
-49.625027 55.748096 494.757324 99 99 99 
-49.420307 55.751316 494.789825 97 97 97 
-49.219170 55.758606 494.858490 96 96 96 
-49.019211 55.767315 494.939606 98 98 98 
-48.814808 55.771034 494.976379 95 95 95 
-48.613697 55.778526 495.046844 95 95 95 
-48.411446 55.784790 495.106232 96 96 96 
-48.210293 55.792389 495.177490 93 93 93 
-48.011875 55.803219 495.277405 92 92 92 
-47.806915 55.806515 495.310394 95 95 95 
-47.607857 55.816750 495.405090 92 92 92 
-47.407825 55.825939 495.490326 89 89 89 
-47.209579 55.837318 495.595032 88 88 88 
-47.009869 55.847050 495.685120 93 93 93 
-46.810333 55.857075 495.777832 89 89 89 
-46.609974 55.866211 495.862640 84 84 84 
-46.411987 55.878292 495.973572 86 86 86 
-46.212936 55.889194 496.073944 86 86 86 
-46.010986 55.896660 496.143921 85 85 85 
-45.812588 55.908531 496.252899 84 84 84 
-45.616436 55.923283 496.387451 80 80 80 
-45.420780 55.938751 496.528351 81 81 81 
-45.220516 55.948700 496.620148 77 77 77 
-45.024487 55.963978 496.759369 77 77 77 
-44.827812 55.978592 496.892700 74 74 74 
-44.629452 55.991249 497.008514 75 75 75 
-44.435181 56.009159 497.171021 71 71 71 
-44.237206 56.022556 497.293457 70 70 70 
-44.045666 56.044277 497.489716 71 71 71 
-43.845245 56.054832 497.586945 69 69 69 
-43.648113 56.069733 497.722565 69 69 69 
-43.451862 56.085896 497.869598 70 70 70 
-43.257923 56.105221 498.044525 66 66 66 
-43.066345 56.127819 498.248474 65 65 65 
-42.871449 56.146290 498.415863 63 63 63 
-42.676960 56.165478 498.589600 60 60 60 
-42.481842 56.184013 498.757538 61 61 61 
-42.291725 56.209396 498.986145 58 58 58 
-42.097988 56.230175 499.173981 58 58 58 
-41.906376 56.254028 499.389008 56 56 56 
-41.712379 56.274895 499.577576 53 53 53 
-41.522789 56.301964 499.821167 52 52 52 
-41.330395 56.325470 500.033142 50 50 50 
-41.139400 56.351166 500.264465 50 50 50 
-40.948746 56.377552 500.501953 47 47 47 
-40.757191 56.402996 500.731018 44 44 44 
-40.571518 56.436863 501.034973 39 39 39 
-40.386292 56.471710 501.347565 42 42 42 
-40.200882 56.506680 501.661224 37 37 37 
-40.014790 56.541050 501.969421 36 36 36 
-39.827492 56.574066 502.265686 34 34 34 
-39.638939 56.605656 502.549194 32 32 32 
-39.454571 56.643562 502.888977 28 28 28 
-39.274586 56.688232 503.288666 26 26 26 
-39.093033 56.731098 503.672302 22 22 22 
-38.912949 56.776566 504.079041 20 20 20 
-38.736320 56.827618 504.535370 18 18 18 
-38.565998 56.888523 505.079132 15 15 15 
-38.396790 56.951752 505.643585 12 12 12 
-168.578217 59.514797 522.012146 5 5 5 
-168.368347 59.518475 522.055054 3 3 3 
-167.348129 59.469067 521.664246 1 1 1 
-166.144379 59.432159 521.393677 2 2 2 
-165.971817 59.449139 521.553284 3 3 3 
-152.182785 59.136730 519.428162 6 6 6 
-151.945831 59.129738 519.376953 7 7 7 
-151.751892 59.139488 519.472778 9 9 9 
-151.530060 59.138374 519.473267 8 8 8 
-151.285522 59.128387 519.395813 6 6 6 
-151.029968 59.114056 519.280151 7 7 7 
-150.820099 59.117584 519.321411 7 7 7 
-150.587646 59.112278 519.284912 6 6 6 
-150.356079 59.107288 519.251404 6 6 6 
-150.130157 59.104515 519.237183 6 6 6 
-149.902039 59.100857 519.215271 7 7 7 
-149.682617 59.100643 519.223511 6 6 6 
-149.432373 59.088226 519.124634 5 5 5 
-149.204666 59.084713 519.103882 6 6 6 
-148.987701 59.085419 519.120361 7 7 7 
-148.775955 59.088226 519.155151 6 6 6 
-148.543198 59.082680 519.116577 5 5 5 
-148.309021 59.076546 519.072815 4 4 4 
-148.082291 59.073372 519.055054 6 6 6 
-147.847839 59.067116 519.010132 5 5 5 
-147.614914 59.061436 518.970337 5 5 5 
-147.397110 59.061794 518.983643 4 4 4 
-147.107086 59.033192 518.742310 3 3 3 
-146.915665 59.044106 518.848389 4 4 4 
-146.670929 59.033623 518.766296 5 5 5 
-146.468018 59.039944 518.831970 4 4 4 
-146.009995 59.031567 518.778442 4 4 4 
-145.774475 59.024715 518.728333 5 5 5 
-145.514359 59.007877 518.590393 6 6 6 
-145.264297 58.995064 518.487793 4 4 4 
-145.049652 58.996635 518.511597 6 6 6 
-144.842651 59.001316 518.562744 5 5 5 
-144.078903 58.957024 518.203430 4 4 4 
-143.949554 58.993500 518.534058 5 5 5 
-143.714905 58.986877 518.485718 5 5 5 
-143.440994 58.964073 518.295288 4 4 4 
-143.051636 58.983631 518.487000 3 3 3 
-142.653336 58.999588 518.647217 5 5 5 
-142.413651 58.990818 518.580017 4 4 4 
-142.118805 58.959137 518.311401 5 5 5 
-141.678741 58.957764 518.319031 4 4 4 
-141.421600 58.941601 518.186829 5 5 5 
-141.141876 58.915962 517.971313 4 4 4 
-140.046585 58.914192 518.004883 3 3 3 
-139.132782 58.896866 517.891663 5 5 5 
-138.896515 58.889183 517.833862 4 4 4 
-138.473526 58.894817 517.902954 4 4 4 
-137.996780 58.877567 517.770691 4 4 4 
-137.808502 58.890289 517.892395 3 3 3 
-137.551468 58.873646 517.755676 5 5 5 
-137.285721 58.853214 517.585693 4 4 4 
-137.057983 58.849033 517.558533 5 5 5 
-136.876984 58.864929 517.708130 4 4 4 
-136.672485 58.870766 517.769104 4 4 4 
-135.935394 58.834911 517.482605 4 4 4 
-135.704544 58.829304 517.442932 4 4 4 
-135.425644 58.802834 517.219666 3 3 3 
-135.210251 58.803886 517.238586 3 3 3 
-133.814926 58.765099 516.954712 2 2 2 
-132.345337 58.789207 517.233337 5 5 5 
-131.889099 58.779999 517.171143 3 3 3 
-130.613388 58.695999 516.479126 4 4 4 
-130.270370 58.737423 516.862366 3 3 3 
-129.579987 58.720402 516.740601 6 6 6 
-129.322861 58.702446 516.591858 4 4 4 
-129.115067 58.706852 516.639954 3 3 3 
-128.682602 58.708004 516.668640 4 4 4 
-128.465057 58.707981 516.677795 5 5 5 
-128.258286 58.712910 516.730347 4 4 4 
-128.102402 58.741169 516.988342 3 3 3 
-126.874046 58.676342 516.463806 5 5 5 
-126.632339 58.665081 516.373840 7 7 7 
-126.395409 58.655998 516.303101 5 5 5 
-126.203552 58.667835 516.416443 4 4 4 
-125.290154 58.647282 516.272034 3 3 3 
-123.721077 58.624546 516.135315 4 4 4 
-123.482101 58.614212 516.053406 4 4 4 
-123.284485 58.623531 516.144348 6 6 6 
-123.079674 58.629433 516.205383 4 4 4 
-122.836258 58.616940 516.104370 5 5 5 
-122.581863 58.599167 515.956787 4 4 4 
-122.372292 58.602787 515.997620 4 4 4 
-122.163910 58.606995 516.043579 5 5 5 
-121.923279 58.595718 515.953247 4 4 4 
-121.678627 58.582455 515.845398 4 4 4 
-121.468254 58.585686 515.882813 3 3 3 
-121.258888 58.589417 515.924500 4 4 4 
-68.918633 57.153648 504.939453 15 15 15 
-68.671341 57.124260 504.685181 37 37 37 
-68.390846 57.066978 504.184570 50 50 50 
-68.085709 56.988731 503.498596 55 55 55 
-67.788452 56.916622 502.866699 61 61 61 
-67.501015 56.852306 502.303833 65 65 65 
-67.221016 56.793888 501.792969 64 64 64 
-66.947617 56.740700 501.328278 68 68 68 
-66.678413 56.690739 500.892059 72 72 72 
-66.419731 56.649448 500.532410 73 73 73 
-66.166168 56.612259 500.209015 78 78 78 
-65.915283 56.577133 499.903900 80 80 80 
-65.664558 56.541920 499.597931 82 82 82 
-65.419487 56.511368 499.333160 81 81 81 
-65.173798 56.480099 499.061951 85 85 85 
-64.929443 56.449787 498.799133 80 80 80 
-64.681381 56.416031 498.505981 78 78 78 
-64.443031 56.390564 498.285950 85 85 85 
-64.203270 56.363686 498.053528 88 88 88 
-63.970245 56.342567 497.872009 91 91 91 
-63.737545 56.321594 497.691742 92 92 92 
-63.505280 56.300877 497.513611 93 93 93 
-63.273304 56.280289 497.336609 93 93 93 
-63.041901 56.260048 497.162781 94 94 94 
-62.809326 56.238647 496.978607 95 95 95 
-62.581638 56.221497 496.831909 97 97 97 
-62.354099 56.204357 496.685394 98 98 98 
-62.125294 56.185947 496.527649 99 99 99 
-61.901642 56.172115 496.410217 100 100 100 
-61.677059 56.157330 496.284363 96 96 96 
-61.451172 56.141254 496.147186 97 97 97 
-61.225445 56.125198 496.010162 100 100 100 
-61.000530 56.109810 495.878937 99 99 99 
-60.781651 56.099880 495.795898 99 99 99 
-60.560097 56.087395 495.690369 104 104 104 
-60.334538 56.071121 495.551239 105 105 105 
-60.116779 56.061977 495.475250 100 100 100 
-59.896740 56.050663 495.379944 104 104 104 
-59.678864 56.041298 495.301880 104 104 104 
-59.456520 56.027641 495.185913 103 103 103 
-59.236420 56.016037 495.087921 105 105 105 
-59.020756 56.008545 495.026398 105 105 105 
-58.800915 55.997028 494.929169 105 105 105 
-58.584328 55.988525 494.858765 107 107 107 
-58.370697 55.982815 494.812836 108 108 108 
-58.151894 55.972080 494.722565 104 104 104 
-57.938435 55.966419 494.677124 107 107 107 
-57.723015 55.958836 494.614655 109 109 109 
-57.508778 55.952339 494.561707 107 107 107 
-57.296246 55.947475 494.523285 110 110 110 
-57.079884 55.938812 494.451202 108 108 108 
-56.866016 55.932541 494.400208 107 107 107 
-56.654999 55.929028 494.373657 111 111 111 
-56.441475 55.923019 494.325012 107 107 107 
-56.229591 55.918591 494.290283 107 107 107 
-56.018497 55.914925 494.262268 109 109 109 
-55.808544 55.912354 494.244019 105 105 105 
-55.599659 55.910873 494.235260 109 109 109 
-55.387238 55.905788 494.194702 106 106 106 
-55.176640 55.902531 494.170258 108 108 108 
-54.965332 55.898506 494.139008 107 107 107 
-54.756992 55.897491 494.134399 106 106 106 
-54.545383 55.893127 494.100037 106 106 106 
-54.341248 55.896404 494.133392 109 109 109 
-54.128498 55.890816 494.088226 109 109 109 
-53.921177 55.890816 494.092468 107 107 107 
-53.712749 55.889671 494.086578 109 109 109 
-53.505775 55.890018 494.093903 111 111 111 
-53.296875 55.888363 494.083496 108 108 108 
-53.090870 55.889736 494.099792 106 106 106 
-52.886333 55.892670 494.129944 110 110 110 
-52.678471 55.892105 494.129120 107 107 107 
-52.470020 55.890907 494.122650 109 109 109 
-52.262932 55.891163 494.129028 103 103 103 
-52.059002 55.894810 494.165436 107 107 107 
-51.852608 55.895824 494.178497 106 106 106 
-51.648521 55.899357 494.213745 109 109 109 
-51.441589 55.899815 494.221832 107 107 107 
-51.238129 55.904057 494.263489 106 106 106 
-51.034199 55.907837 494.300934 104 104 104 
-50.829830 55.911156 494.334290 102 102 102 
-50.623795 55.912663 494.351624 105 105 105 
-50.423725 55.920807 494.427582 101 101 101 
-50.216339 55.920860 494.432068 101 101 101 
-50.014297 55.926899 494.489380 100 100 100 
-49.811897 55.932583 494.543518 106 106 106 
-49.607788 55.936401 494.581207 100 100 100 
-49.408428 55.945602 494.666473 102 102 102 
-49.205456 55.950794 494.716278 100 100 100 
-49.002769 55.956348 494.769287 97 97 97 
-48.801205 55.963245 494.834076 100 100 100 
-48.598511 55.968880 494.887848 97 97 97 
-48.395584 55.974312 494.939667 95 95 95 
-48.197510 55.985432 495.041779 95 95 95 
-47.994740 55.991150 495.096161 94 94 94 
-47.794804 56.000252 495.180450 95 95 95 
-47.591541 56.005535 495.230835 89 89 89 
-47.392673 56.016033 495.327454 91 91 91 
-47.192833 56.025482 495.414703 88 88 88 
-46.991634 56.033398 495.488464 90 90 90 
-46.794163 56.045841 495.602173 90 90 90 
-46.595692 56.057194 495.706268 86 86 86 
-46.396137 56.067345 495.799713 85 85 85 
-46.197365 56.078529 495.902283 86 86 86 
-45.996544 56.087322 495.983673 84 84 84 
-45.797867 56.098835 496.089050 87 87 87 
-45.601757 56.113609 496.223328 82 82 82 
-45.404316 56.126862 496.344086 79 79 79 
-45.205952 56.139088 496.455750 77 77 77 
-45.010445 56.155003 496.600098 79 79 79 
-44.813782 56.169609 496.732849 78 78 78 
-44.618507 56.186092 496.882141 74 74 74 
-44.418045 56.196190 496.974915 74 74 74 
-44.223515 56.213913 497.135132 70 70 70 
-44.026958 56.229218 497.273987 73 73 73 
-43.828835 56.242645 497.396210 71 71 71 
-43.631756 56.257553 497.531525 67 67 67 
-43.436260 56.274673 497.686310 65 65 65 
-43.243282 56.295223 497.871552 68 68 68 
-43.048283 56.313335 498.035095 67 67 67 
-42.852905 56.331123 498.195801 64 64 64 
-42.659706 56.351971 498.383575 63 63 63 
-42.468658 56.375866 498.598267 63 63 63 
-42.272003 56.392521 498.748962 62 62 62 
-42.081493 56.417595 498.973999 59 59 59 
-41.887505 56.438225 499.159698 58 58 58 
-41.696724 56.463390 499.385681 55 55 55 
-41.503735 56.485817 499.587341 52 52 52 
-41.315189 56.514568 499.844849 52 52 52 
-41.121334 56.536301 500.040253 49 49 49 
-40.928795 56.560066 500.253754 48 48 48 
-40.740486 56.589973 500.521393 45 45 45 
-40.551353 56.619011 500.781494 45 45 45 
-40.365593 56.653099 501.086212 42 42 42 
-40.178707 56.685963 501.380035 41 41 41 
-39.992538 56.720169 501.685791 36 36 36 
-39.806347 56.754734 501.994659 35 35 35 
-39.619549 56.788776 502.298859 31 31 31 
-39.434368 56.825516 502.626984 31 31 31 
-39.252022 56.866783 502.995056 28 28 28 
-39.070248 56.909306 503.374268 24 24 24 
-38.890976 56.955948 503.789886 23 23 23 
-38.711487 57.002796 504.207367 19 19 19 
-38.540859 57.063282 504.745331 17 17 17 
-38.371506 57.126316 505.306000 13 13 13 
-38.163631 57.132408 505.362854 10 10 10 
-168.558472 59.728573 521.947205 3 3 3 
-168.385483 59.745346 522.104370 3 3 3 
-166.368408 59.654076 521.391907 3 3 3 
-166.161209 59.658661 521.442627 3 3 3 
-165.889908 59.640221 521.292053 3 3 3 
-162.711838 59.604038 521.123901 3 3 3 
-162.489029 59.602940 521.124878 2 2 2 
-152.552246 59.329510 519.170593 3 3 3 
-152.351334 59.336502 519.242065 4 4 4 
-152.151993 59.344120 519.319031 8 8 8 
-151.928436 59.342316 519.313477 10 10 10 
-151.717255 59.345352 519.350220 10 10 10 
-151.488205 59.341393 519.325806 6 6 6 
-151.246918 59.332623 519.259277 5 5 5 
-151.002975 59.322773 519.183350 7 7 7 
-150.769592 59.317055 519.143494 6 6 6 
-150.551514 59.317348 519.156311 6 6 6 
-150.320679 59.312618 519.125122 7 7 7 
-150.095413 59.310066 519.112976 8 8 8 
-149.861862 59.304230 519.072144 8 8 8 
-149.642303 59.303932 519.079651 5 5 5 
