ply
format ascii 1.0
element vertex 689
property float x
property float y
property float z
property uchar red
property uchar green
property uchar blue
property float nx
property float ny
property float nz
end_header
170.930023 132.460785 679.509766 4 4 4 0.162981 -0.210138 0.963991
173.046524 133.085510 679.486267 4 4 4 0.070565 -0.178355 0.981433
175.325928 133.159561 679.098267 4 4 4 0.113835 -0.197595 0.973652
177.825058 133.150452 678.824219 7 7 7 0.111827 -0.209010 0.971498
180.349976 133.213882 678.526367 6 6 6 0.138508 -0.239442 0.960980
182.825394 133.224274 678.132874 5 5 5 -0.158870 0.286022 -0.944961
185.287506 133.243530 677.741516 4 4 4 0.160731 -0.222264 0.961646
187.618454 133.549561 677.430969 4 4 4 -0.157292 0.277993 -0.947618
189.945038 133.854462 677.230530 5 5 5 0.183426 -0.306014 0.934189
173.714874 134.876160 679.562805 5 5 5 0.097123 -0.155792 0.983003
175.635605 134.939865 679.460938 5 5 5 0.110836 -0.209094 0.971594
177.802551 135.058777 679.285522 12 12 12 0.114377 -0.250338 0.961379
180.198380 135.173752 679.062866 9 9 9 0.133031 -0.244946 0.960367
182.755524 135.201645 678.654968 5 5 5 -0.156061 0.244947 -0.956894
185.245117 135.135193 678.217285 4 4 4 0.163824 -0.233391 0.958483
187.719986 135.059998 677.735107 4 4 4 0.132355 -0.281930 0.950262
190.219345 135.047531 677.440735 4 4 4 0.112404 -0.303954 0.946032
192.128342 135.052185 677.271729 4 4 4 -0.169133 0.240289 -0.955853
165.796783 -166.086563 681.945374 4 4 4 0.103688 0.123364 0.986930
167.805328 -166.112701 681.899902 4 4 4 -0.097705 -0.244196 -0.964791
170.460037 -166.174606 681.731873 5 5 5 0.130449 0.431383 0.892688
172.909531 -166.140015 681.179871 5 5 5 0.160546 0.363998 0.917459
175.315872 -166.141968 681.076782 5 5 5 -0.113778 -0.285838 -0.951500
177.715668 -166.198044 680.660828 5 5 5 0.141088 0.349438 0.926276
180.276215 -166.019089 680.194580 5 5 5 0.059694 0.206028 0.976724
182.696182 -166.026031 679.938110 5 5 5 -0.016658 0.191307 0.981389
184.910950 -165.922272 679.810913 6 6 6 0.010550 0.438760 0.898542
160.935028 -163.244995 682.111572 5 5 5 -0.103887 -0.230100 -0.967606
163.255951 -163.775635 681.879944 5 5 5 0.180580 0.295209 0.938213
165.342606 -164.129807 681.727234 5 5 5 0.034141 0.209759 0.977157
167.788208 -164.185333 681.478210 4 4 4 0.161707 0.330008 0.930024
170.266006 -164.188889 681.005005 5 5 5 -0.145356 -0.339101 -0.929453
172.726776 -164.173523 680.702454 4 4 4 0.140372 0.257352 0.956068
175.250336 -164.204422 680.394897 5 5 5 0.115252 0.274611 0.954623
177.677963 -164.324280 680.119263 4 4 4 0.150840 0.291311 0.944661
179.944687 -164.359543 679.818237 4 4 4 0.224971 0.310693 0.923503
182.249023 -164.824493 679.824646 5 5 5 0.032538 0.180109 0.983108
185.683533 -165.304077 679.823120 5 5 5 -0.118098 -0.364639 -0.923630
158.487350 -161.038361 682.018921 13 13 13 0.145718 0.238928 0.960042
160.489624 -161.508759 681.885925 10 10 10 0.139348 0.248248 0.958622
162.769531 -161.791077 681.577271 8 8 8 0.145818 0.194815 0.969940
165.238022 -161.784973 681.260803 8 8 8 0.135561 0.207226 0.968855
167.739868 -161.705917 680.830078 8 8 8 0.139671 0.230238 0.963059
170.284271 -161.751694 680.531189 8 8 8 0.136892 0.211062 0.967839
172.754776 -161.825195 680.158020 7 7 7 0.138493 0.214636 0.966825
175.136642 -161.992783 679.866150 6 6 6 0.136040 0.235323 0.962349
177.105240 -162.523819 679.775452 5 5 5 0.193342 0.266992 0.944105
153.782120 -158.255219 682.088928 23 23 23 0.157876 0.223200 0.961903
155.636398 -158.770569 681.953735 24 24 24 0.137222 0.229807 0.963514
157.804520 -159.193954 681.758728 22 22 22 -0.146004 -0.207815 -0.967210
160.314682 -159.185333 681.365417 20 20 20 0.139060 0.208456 0.968095
162.792984 -159.298965 681.044556 21 21 21 0.144154 0.209434 0.967138
165.332504 -159.299301 680.661804 19 19 19 0.141653 0.213836 0.966545
167.828644 -159.243713 680.280701 16 16 16 0.144759 0.209287 0.967080
170.207306 -159.307922 679.957825 14 14 14 0.146456 0.238455 0.960047
172.542252 -160.146622 679.805908 12 12 12 0.127669 0.233001 0.964060
174.249420 -160.457260 679.693237 13 13 13 0.159654 0.222618 0.961744
150.626663 -155.849014 682.061401 17 17 17 0.145656 0.214895 0.965715
152.995697 -156.470337 681.893738 20 20 20 0.144893 0.206603 0.967637
155.295807 -156.823914 681.593811 22 22 22 0.140674 0.202587 0.969107
157.802582 -156.783539 681.241821 21 21 21 0.135684 0.208793 0.968501
160.286301 -156.719055 680.863098 22 22 22 0.139850 0.203430 0.969050
162.821182 -156.718948 680.490723 19 19 19 0.138953 0.207363 0.968345
165.216919 -156.851379 680.157349 23 23 23 -0.142698 -0.206602 -0.967963
167.464996 -157.011292 679.876099 18 18 18 -0.154734 -0.210363 -0.965301
169.491058 -157.717697 679.674377 21 21 21 0.161145 0.226425 0.960606
146.496414 -153.417786 682.074341 19 19 19 0.149768 0.210481 0.966058
148.127090 -153.701019 681.995239 19 19 19 0.121088 0.223463 0.967162
150.288742 -154.219910 681.783630 18 18 18 0.148972 0.208845 0.966536
152.744873 -154.199951 681.414124 17 17 17 0.140902 0.218639 0.965580
155.245392 -154.293610 681.054260 17 17 17 0.144298 0.213494 0.966229
157.788895 -154.348389 680.708069 17 17 17 0.134717 0.222006 0.965694
160.312042 -154.285995 680.350464 17 17 17 0.145761 0.218918 0.964795
162.775986 -154.252274 679.944885 17 17 17 0.139126 0.223216 0.964789
165.049515 -154.955719 679.820740 15 15 15 0.141553 0.216488 0.965969
143.491592 -150.896439 682.018982 17 17 17 0.158233 0.233944 0.959288
145.446503 -151.492905 681.830383 17 17 17 0.151534 0.219898 0.963681
147.796310 -151.819397 681.593628 17 17 17 0.122644 0.218983 0.967990
150.364059 -151.814194 681.255554 17 17 17 0.143093 0.224187 0.963984
152.839981 -151.710175 680.820679 17 17 17 0.144587 0.218034 0.965171
155.317841 -151.721710 680.477112 16 16 16 0.142203 0.211801 0.966912
157.747528 -151.784271 680.104797 17 17 17 0.126021 0.201234 0.971403
160.181107 -152.148178 679.856323 17 17 17 0.141462 0.199327 0.969669
161.796722 -152.557098 679.682556 15 15 15 0.139592 0.218579 0.965783
138.360870 -148.303421 682.112793 17 17 17 0.150594 0.234288 0.960432
140.572525 -148.810791 681.968750 16 16 16 0.128863 0.233969 0.963666
142.874832 -149.191635 681.724304 16 16 16 0.149759 0.233714 0.960703
145.264008 -149.205139 681.353394 16 16 16 0.146437 0.223396 0.963665
147.751953 -149.263397 681.005859 16 16 16 0.138042 0.222833 0.965034
150.206146 -149.351715 680.666260 15 15 15 0.136720 0.230216 0.963487
152.739258 -149.305908 680.295044 15 15 15 0.130291 0.212991 0.968328
155.207138 -149.321350 679.961792 15 15 15 0.141764 0.215930 0.966063
157.503494 -149.834152 679.746399 16 16 16 0.108686 0.216102 0.970303
159.837402 -150.375549 679.677368 16 16 16 0.134154 0.214448 0.967479
135.883896 -146.075958 682.007141 16 16 16 0.159603 0.244609 0.956396
137.877045 -146.579865 681.830139 15 15 15 0.144767 0.223613 0.963867
140.227097 -146.809479 681.559265 15 15 15 0.136982 0.226999 0.964214
142.786026 -146.825211 681.161255 14 14 14 0.146926 0.233076 0.961295
145.304031 -146.755676 680.760254 14 14 14 0.139422 0.225293 0.964264
147.843338 -146.711777 680.393982 14 14 14 0.138690 0.223894 0.964695
150.319260 -146.768692 680.044678 14 14 14 -0.140401 -0.230737 -0.962833
152.562637 -147.177826 679.838013 14 14 14 0.124415 0.238401 0.963165
154.591187 -147.717133 679.736938 14 14 14 0.150788 0.244241 0.957919
130.906281 -143.290176 682.061584 18 18 18 0.140552 0.214359 0.966590
133.004120 -144.021240 681.952148 17 17 17 0.130960 0.237894 0.962422
135.354935 -144.231903 681.633057 15 15 15 0.147869 0.248854 0.957187
137.827377 -144.213150 681.291016 16 16 16 0.141050 0.238552 0.960832
140.355148 -144.215866 680.892212 16 16 16 0.149264 0.237951 0.959739
142.792816 -144.364944 680.557068 16 16 16 0.136527 0.234700 0.962433
145.277542 -144.334778 680.203857 16 16 16 -0.134039 -0.229784 -0.963967
147.554947 -144.490585 679.928833 15 15 15 0.143126 0.230694 0.962442
149.432449 -144.905823 679.743958 14 14 14 0.158281 0.249640 0.955315
128.189194 -141.024338 681.972290 39 39 39 0.154483 0.253366 0.954956
130.350281 -141.601776 681.780029 27 27 27 0.150054 0.240431 0.958998
132.714554 -141.829468 681.474121 20 20 20 0.149602 0.237547 0.959787
135.235077 -141.857346 681.058899 22 22 22 0.152447 0.240345 0.958642
137.737473 -141.774918 680.655640 25 25 25 0.140076 0.242426 0.960004
140.262024 -141.715179 680.291504 29 29 29 0.136864 0.233767 0.962612
142.767487 -141.830093 679.929260 29 29 29 0.133776 0.222341 0.965748
145.045486 -142.412018 679.790344 25 25 25 0.133905 0.227971 0.964416
123.156944 -138.436279 682.020142 39 39 39 -0.145077 -0.242111 -0.959341
125.352104 -139.108597 681.862122 38 38 38 -0.140632 -0.241171 -0.960239
127.790390 -139.302063 681.560486 39 39 39 -0.144275 -0.256914 -0.955604
130.311020 -139.232727 681.147827 37 37 37 0.148022 0.249216 0.957069
132.874359 -139.239120 680.768982 34 34 34 0.148721 0.248490 0.957149
135.311707 -139.282990 680.392639 35 35 35 0.143027 0.247330 0.958317
137.792252 -139.359879 680.073181 35 35 35 0.142466 0.248663 0.958056
140.049438 -139.720581 679.816956 36 36 36 0.129491 0.251230 0.959227
141.864914 -140.143051 679.713440 35 35 35 0.130851 0.234921 0.963167
118.624756 -135.815506 682.076050 43 43 43 0.150495 0.240655 0.958872
120.596733 -136.449585 681.881470 45 45 45 -0.147162 -0.235523 -0.960663
122.848221 -136.664825 681.635071 44 44 44 -0.141681 -0.243564 -0.959481
125.300865 -136.754990 681.264160 43 43 43 0.146094 0.241296 0.959392
127.749718 -136.872208 680.936829 41 41 41 0.139810 0.245147 0.959352
130.219666 -136.830963 680.567078 39 39 39 0.142109 0.239278 0.960495
132.703995 -136.739655 680.162048 36 36 36 -0.152812 -0.238263 -0.959103
135.081619 -137.061264 679.849854 35 35 35 -0.149311 -0.245982 -0.957705
137.184860 -137.791519 679.722717 36 36 36 0.149983 0.257038 0.954692
113.760406 -133.230255 682.056702 34 34 34 0.146625 0.240577 0.959491
115.514534 -133.598450 681.921448 37 37 37 0.126243 0.239755 0.962590
117.761559 -134.184357 681.763062 44 44 44 0.139484 0.249975 0.958152
120.235062 -134.324661 681.427307 45 45 45 0.151408 0.235248 0.960070
122.756592 -134.256821 681.012695 45 45 45 0.142902 0.236728 0.961009
125.282410 -134.196274 680.633972 44 44 44 0.141052 0.234893 0.961733
127.810806 -134.284134 680.275635 43 43 43 0.137076 0.229246 0.963668
130.238586 -134.395905 679.946411 41 41 41 0.145375 0.229923 0.962290
132.420135 -134.977585 679.784485 40 40 40 0.141676 0.244375 0.959275
107.644470 -130.786041 682.113525 8 8 8 0.099596 0.211008 0.972397
110.857941 -131.202454 681.985657 25 25 25 0.135490 0.235955 0.962272
112.911018 -131.655167 681.828857 32 32 32 0.134266 0.223512 0.965409
115.334694 -131.719086 681.514648 35 35 35 0.137839 0.221532 0.965362
117.880432 -131.690659 681.117126 38 38 38 0.138526 0.234768 0.962130
120.315773 -131.742310 680.791748 39 39 39 0.134657 0.229914 0.963850
122.768303 -131.842697 680.448486 42 42 42 0.144317 0.217390 0.965357
125.252472 -131.784164 680.054688 43 43 43 -0.143792 -0.215827 -0.965786
127.505798 -132.067123 679.790833 44 44 44 0.123234 0.216334 0.968511
129.248535 -132.451538 679.701660 41 41 41 0.148589 0.220850 0.963923
106.215698 -128.619141 682.051697 10 10 10 0.161601 0.205091 0.965309
107.815269 -128.967529 681.888733 9 9 9 -0.123366 -0.160044 -0.979371
110.218689 -129.285110 681.645569 9 9 9 -0.138829 -0.192926 -0.971342
112.688629 -129.347687 681.341431 7 7 7 0.131770 0.207771 0.969261
115.230011 -129.306702 680.964478 7 7 7 0.146702 0.205288 0.967644
117.750671 -129.240768 680.548767 9 9 9 0.141768 0.198512 0.969791
120.280670 -129.201111 680.176514 10 10 10 0.121781 0.198033 0.972601
122.675896 -129.363373 679.915771 11 11 11 0.140287 0.199341 0.969836
125.004494 -129.983414 679.711426 20 20 20 -0.132715 -0.215140 -0.967523
103.507988 -126.083519 682.029053 11 11 11 -0.205146 -0.190389 -0.960035
105.350861 -126.690613 681.895386 11 11 11 0.152848 0.187477 0.970304
107.822342 -126.783119 681.531677 11 11 11 0.135539 0.163254 0.977229
110.360481 -126.733040 681.197449 12 12 12 0.140653 0.161678 0.976769
112.869507 -126.771912 680.784668 10 10 10 0.143177 0.182230 0.972776
115.310265 -126.753822 680.463867 9 9 9 0.136329 0.183013 0.973612
117.701385 -126.833488 680.123657 9 9 9 0.153344 0.190090 0.969717
119.999214 -127.063026 679.847290 9 9 9 0.093259 0.175750 0.980008
122.239655 -127.669716 679.726990 10 10 10 0.159162 0.212601 0.964089
101.006042 -123.768822 682.031128 18 18 18 0.152587 0.193960 0.969070
102.886116 -124.125572 681.862915 13 13 13 0.181329 0.177466 0.967277
105.223099 -124.254959 681.410400 10 10 10 0.152530 0.167329 0.974031
107.743156 -124.254494 681.101685 11 11 11 0.125956 0.163180 0.978523
110.285782 -124.355766 680.802612 11 11 11 0.136415 0.170365 0.975893
112.807083 -124.292130 680.387939 11 11 11 0.146781 0.161027 0.975974
115.269669 -124.269806 680.014587 9 9 9 0.140308 0.159303 0.977208
117.770515 -124.877998 679.757996 8 8 8 0.113943 0.196435 0.973874
119.395134 -125.098854 679.642395 10 10 10 0.135157 0.159156 0.977958
98.302956 -121.090454 681.987061 14 14 14 -0.144271 -0.184645 -0.972159
100.435707 -121.700989 681.796814 16 16 16 0.155476 0.171621 0.972817
102.847549 -121.794373 681.429688 12 12 12 0.150532 0.167890 0.974245
105.258339 -121.801460 681.047363 12 12 12 0.157670 0.160497 0.974362
107.684669 -121.717056 680.677612 12 12 12 0.138504 0.162849 0.976881
110.216011 -121.842484 680.352234 12 12 12 0.141653 0.172085 0.974844
112.704147 -121.799988 679.967041 12 12 12 -0.143351 -0.179143 -0.973324
114.885872 -122.270973 679.775208 12 12 12 0.099820 0.149300 0.983741
116.857498 -122.895668 679.717468 11 11 11 0.149746 0.124227 0.980889
95.482658 -118.883194 682.012817 13 13 13 0.131611 0.172422 0.976191
97.752945 -119.291763 681.779419 13 13 13 -0.141457 -0.173102 -0.974693
100.284737 -119.233475 681.386047 15 15 15 0.144793 0.169326 0.974866
102.843132 -119.293724 681.012573 13 13 13 0.151072 0.162237 0.975119
105.343750 -119.263306 680.610291 12 12 12 0.146728 0.163334 0.975599
107.841751 -119.288483 680.259033 12 12 12 0.135925 0.162866 0.977241
110.222069 -119.350464 679.934814 13 13 13 -0.157535 -0.172320 -0.972363
112.158829 -119.884453 679.717407 12 12 12 0.164057 0.188820 0.968211
91.166603 -116.293068 682.076599 11 11 11 0.160401 0.168639 0.972539
93.003181 -116.483650 681.925049 12 12 12 0.133652 0.163080 0.977518
95.281822 -116.814758 681.689880 13 13 13 -0.131621 -0.163361 -0.977747
97.681129 -116.769485 681.346436 13 13 13 0.140028 0.172065 0.975082
100.187508 -116.790955 680.970764 14 14 14 0.141705 0.170965 0.975034
102.747253 -116.808296 680.612732 14 14 14 0.146436 0.161380 0.975968
105.269867 -116.748306 680.200256 13 13 13 0.144569 0.152130 0.977730
107.763504 -116.866898 679.847900 12 12 12 0.140820 0.155143 0.977804
109.679146 -117.537895 679.724426 13 13 13 0.157774 0.169193 0.972873
88.528870 -113.487938 682.086975 15 15 15 0.139828 0.173290 0.974894
90.425041 -114.119644 681.932495 13 13 13 0.141652 0.153749 0.977904
92.789055 -114.287544 681.649292 12 12 12 0.126472 0.147400 0.980958
95.364143 -114.305115 681.289368 12 12 12 0.144956 0.153406 0.977473
97.856171 -114.218155 680.859558 13 13 13 0.149657 0.164395 0.974976
100.282379 -114.296242 680.525513 12 12 12 0.131202 0.162936 0.977874
102.691086 -114.311569 680.211487 13 13 13 0.134197 0.151996 0.979228
105.038689 -114.378799 679.859741 14 14 14 0.142770 0.146010 0.978927
107.064667 -114.710327 679.678040 13 13 13 0.140169 0.150458 0.978629
85.806435 -111.050613 682.020020 11 11 11 -0.158857 -0.156641 -0.974796
87.739319 -111.738396 681.892151 12 12 12 0.135365 0.154829 0.978624
90.216789 -111.738976 681.540344 12 12 12 0.135220 0.162925 0.977329
92.794472 -111.776970 681.202515 12 12 12 0.130374 0.168720 0.977004
95.296921 -111.792152 680.874207 12 12 12 0.143675 0.167113 0.975413
97.825821 -111.737892 680.484741 12 12 12 0.148367 0.151046 0.977329
100.319588 -111.776878 680.103149 13 13 13 0.130206 0.148266 0.980339
102.769012 -111.906235 679.820984 14 14 14 0.125909 0.151484 0.980408
104.424141 -112.427132 679.716370 13 13 13 0.164409 0.170036 0.971626
83.352371 -108.890656 682.025024 11 11 11 0.158871 0.161881 0.973938
85.451157 -109.288773 681.852356 11 11 11 0.130017 0.149538 0.980170
87.819176 -109.252846 681.547607 12 12 12 0.136903 0.146571 0.979681
90.218971 -109.258080 681.154236 11 11 11 0.149424 0.158373 0.976008
92.689926 -109.285713 680.801270 11 11 11 0.140484 0.156636 0.977614
95.224304 -109.276306 680.419189 11 11 11 0.136402 0.155886 0.978312
97.761040 -109.234192 680.097961 11 11 11 0.131612 0.156528 0.978865
100.179459 -109.518684 679.787109 12 12 12 0.127236 0.150317 0.980416
102.126114 -110.249985 679.708740 13 13 13 0.143143 0.161994 0.976354
80.659782 -106.089737 682.037781 15 15 15 0.154935 0.183410 0.970750
82.936913 -106.551392 681.786377 14 14 14 0.153394 0.147087 0.977157
85.283539 -106.790482 681.485229 13 13 13 0.136263 0.140335 0.980683
87.846786 -106.775261 681.111023 14 14 14 0.147948 0.160088 0.975953
90.376846 -106.724861 680.709167 13 13 13 0.137551 0.148870 0.979243
92.819748 -106.762894 680.414124 13 13 13 0.128927 0.154816 0.979495
95.200920 -106.812408 680.106750 12 12 12 0.150376 0.154058 0.976552
97.474861 -107.125603 679.787842 12 12 12 0.152768 0.183925 0.970996
99.123856 -107.589172 679.645386 12 12 12 0.138406 0.174382 0.974902
78.073914 -103.810776 682.025330 10 10 10 -0.180974 -0.163614 -0.969783
80.248856 -104.207024 681.776184 12 12 12 -0.136935 -0.165755 -0.976613
82.720467 -104.232513 681.495117 16 16 16 0.129162 0.152670 0.979801
85.284676 -104.300186 681.135986 15 15 15 0.146421 0.146499 0.978314
87.789505 -104.275085 680.728882 14 14 14 0.147758 0.144811 0.978365
90.310265 -104.243896 680.376953 14 14 14 0.131124 0.138750 0.981608
92.843765 -104.256561 680.004517 14 14 14 0.137723 0.129776 0.981932
95.043343 -104.595993 679.741638 14 14 14 0.112361 0.093873 0.989223
96.922005 -104.720642 679.691162 13 13 13 0.128820 0.103771 0.986224
75.680595 -101.248978 682.015137 18 18 18 0.149154 0.180998 0.972107
77.964424 -101.720787 681.789246 13 13 13 -0.156827 -0.150822 -0.976042
80.315933 -101.748268 681.413147 16 16 16 0.144245 0.142788 0.979186
82.706512 -101.750214 681.076599 18 18 18 0.135804 0.153152 0.978827
85.164017 -101.744164 680.734558 18 18 18 0.136865 0.146835 0.979647
87.736816 -101.783211 680.380554 17 17 17 0.141198 0.139100 0.980160
90.263412 -101.758781 679.975891 16 16 16 -0.137608 -0.149272 -0.979174
92.550079 -102.002228 679.805176 15 15 15 0.112493 0.159839 0.980713
94.380173 -102.844536 679.665527 14 14 14 -0.169139 -0.154331 -0.973434
73.204414 -98.808640 681.976624 13 13 13 0.150785 0.152077 0.976799
75.327049 -99.170670 681.782349 14 14 14 -0.136430 -0.139236 -0.980816
77.803459 -99.292961 681.444946 12 12 12 0.147561 0.133770 0.979965
80.354996 -99.273849 681.024841 14 14 14 0.141966 0.138812 0.980090
82.862396 -99.208260 680.693176 15 15 15 0.130580 0.142515 0.981141
85.323792 -99.265244 680.372742 15 15 15 0.134339 0.134829 0.981720
87.679420 -99.364624 680.021729 15 15 15 -0.148681 -0.143803 -0.978373
89.896935 -99.611298 679.783142 14 14 14 0.077349 0.119403 0.989828
91.929649 -99.678970 679.630493 14 14 14 0.135537 0.109684 0.984682
68.995178 -95.812424 682.124573 12 12 12 0.130773 0.119531 0.984180
70.706238 -96.263290 682.015320 13 13 13 -0.126893 -0.150056 -0.980501
72.710709 -96.769432 681.817444 13 13 13 -0.140141 -0.143941 -0.979613
75.239227 -96.742584 681.482605 13 13 13 0.128374 0.136263 0.982320
77.798737 -96.814209 681.132751 12 12 12 0.145984 0.134507 0.980100
80.312111 -96.791512 680.719543 12 12 12 0.149766 0.129827 0.980161
82.842758 -96.741951 680.319885 12 12 12 0.138162 0.128138 0.982085
85.287369 -96.786308 680.002136 13 13 13 0.128919 0.116779 0.984755
87.493057 -97.033752 679.796753 13 13 13 0.131814 0.090602 0.987125
68.233551 -93.599052 681.990601 18 18 18 -0.170611 -0.161066 -0.972085
70.398712 -94.268059 681.787354 17 17 17 -0.144174 -0.140136 -0.979579
72.754738 -94.299873 681.420959 16 16 16 0.140655 0.140834 0.979991
75.189865 -94.248878 681.091675 16 16 16 0.130924 0.138228 0.981709
77.708687 -94.237480 680.752258 15 15 15 0.135665 0.136097 0.981363
80.264893 -94.276253 680.409241 14 14 14 0.138211 0.130942 0.981709
82.802055 -94.267212 680.041443 15 15 15 0.131534 0.115515 0.984558
85.090065 -94.674820 679.786255 12 12 12 -0.157807 -0.105981 -0.981766
86.993446 -95.284370 679.650574 11 11 11 0.127653 0.115226 0.985103
65.838615 -91.448097 682.022461 13 13 13 0.121613 0.130373 0.983978
67.816566 -91.727989 681.830994 14 14 14 -0.151262 -0.149222 -0.977166
70.310265 -91.776451 681.425476 14 14 14 0.146122 0.131107 0.980540
72.873581 -91.788918 681.073425 14 14 14 0.129170 0.126424 0.983530
75.272621 -91.784660 680.778687 14 14 14 0.131441 0.129508 0.982828
77.710472 -91.763123 680.428894 14 14 14 0.142250 0.133357 0.980806
80.225716 -91.800461 680.067932 13 13 13 -0.151956 -0.142561 -0.978052
82.470215 -92.306572 679.821716 12 12 12 0.128304 0.113503 0.985218
84.423584 -92.742790 679.682007 12 12 12 0.164431 0.165648 0.972380
63.020927 -88.509262 681.966003 12 12 12 -0.144703 -0.149841 -0.978064
65.314194 -89.217667 681.882141 13 13 13 0.129491 0.126104 0.983529
67.769569 -89.265083 681.484924 14 14 14 0.144778 0.124856 0.981555
70.348206 -89.307022 681.121338 14 14 14 0.139468 0.120142 0.982911
72.851036 -89.325737 680.765320 15 15 15 0.135252 0.128570 0.982434
75.374023 -89.270348 680.405884 14 14 14 0.136830 0.128172 0.982267
77.783127 -89.250435 680.069702 14 14 14 0.131508 0.123352 0.983611
79.750084 -89.484016 679.809448 13 13 13 0.115481 0.117680 0.986314
82.168945 -89.583298 679.643677 14 14 14 -0.132133 -0.122096 -0.983684
60.778572 -86.165253 682.027588 13 13 13 0.156996 0.161538 0.974299
62.841671 -86.744919 681.830017 13 13 13 -0.128982 -0.128748 -0.983254
65.195595 -86.834717 681.582520 14 14 14 0.120865 0.127106 0.984498
67.734177 -86.788994 681.181519 14 14 14 0.146679 0.130691 0.980513
70.274536 -86.748741 680.821899 14 14 14 0.140318 0.128862 0.981685
72.809921 -86.705338 680.436584 13 13 13 0.136719 0.128529 0.982236
75.350967 -86.814087 680.120361 12 12 12 0.126159 0.115427 0.985272
77.572380 -86.871582 679.798584 12 12 12 0.140947 0.112759 0.983575
79.450653 -87.483154 679.682007 12 12 12 -0.143183 -0.132855 -0.980738
58.408611 -83.626549 682.069702 18 18 18 -0.158718 -0.126230 -0.979221
60.411457 -84.203278 681.863525 16 16 16 -0.148135 -0.124034 -0.981158
62.862843 -84.214676 681.504639 16 16 16 0.133164 0.118902 0.983936
65.238510 -84.268120 681.211121 16 16 16 0.139816 0.134010 0.981067
67.695763 -84.311562 680.846375 16 16 16 0.142041 0.130770 0.981185
70.234512 -84.272202 680.484985 14 14 14 0.142660 0.127087 0.981579
72.769249 -84.230949 680.106873 14 14 14 0.134049 0.127238 0.982772
75.064079 -84.551163 679.851624 13 13 13 0.121137 0.134295 0.983509
77.348663 -84.976562 679.693115 11 11 11 0.148831 0.126694 0.980713
56.061031 -80.855042 682.063049 16 16 16 0.143565 0.138501 0.979901
57.920330 -81.539772 681.938232 16 16 16 0.145854 0.126089 0.981238
60.317883 -81.809265 681.588562 14 14 14 0.145052 0.118191 0.982340
62.860973 -81.769646 681.219604 14 14 14 0.139142 0.122110 0.982715
65.356796 -81.750465 680.849609 15 15 15 0.142777 0.128877 0.981328
67.718971 -81.861855 680.530579 15 15 15 0.135188 0.126221 0.982748
70.200073 -81.804970 680.200806 14 14 14 0.141541 0.121842 0.982405
72.658508 -81.920586 679.825012 15 15 15 0.148692 0.131281 0.980131
74.455437 -82.272408 679.653992 16 16 16 -0.145362 -0.141929 -0.979146
53.536259 -78.384499 682.055969 16 16 16 -0.159026 -0.145078 -0.976557
55.439583 -79.146431 681.947754 17 17 17 0.135205 0.131939 0.981994
57.741352 -79.231979 681.641846 15 15 15 0.137257 0.132075 0.981691
60.286175 -79.337326 681.278748 15 15 15 0.143915 0.130541 0.980942
62.828766 -79.299950 680.918701 15 15 15 0.143292 0.125188 0.981731
65.366333 -79.259308 680.529358 15 15 15 0.142953 0.123635 0.981977
67.874001 -79.195244 680.155334 15 15 15 0.136212 0.123831 0.982910
70.162674 -79.368874 679.885010 14 14 14 -0.146605 -0.144385 -0.978601
71.859543 -79.877434 679.703247 15 15 15 -0.155569 -0.147249 -0.976789
51.351730 -75.909195 681.993042 22 22 22 0.118502 0.121071 0.985545
53.152515 -76.530540 681.937561 21 21 21 0.131930 0.078961 0.988109
55.255627 -76.830841 681.675171 18 18 18 0.135349 0.123102 0.983121
57.709049 -76.758873 681.307373 18 18 18 0.143002 0.121791 0.982200
60.251381 -76.721130 680.934753 18 18 18 0.143039 0.123139 0.982027
62.767639 -76.795609 680.596863 17 17 17 0.141237 0.120747 0.982585
65.331505 -76.791702 680.213135 17 17 17 0.135449 0.121811 0.983268
67.759209 -76.826187 679.896057 16 16 16 0.145565 0.122301 0.981760
69.899887 -77.573441 679.679443 15 15 15 -0.157600 -0.138839 -0.977694
48.795639 -73.200211 682.059204 35 35 35 -0.119248 -0.128547 -0.984508
50.756874 -73.973518 681.946777 29 29 29 0.110740 0.124811 0.985981
52.885307 -74.206177 681.726929 25 25 25 0.138940 0.117364 0.983321
55.254475 -74.248367 681.332520 27 27 27 0.142092 0.118922 0.982684
57.682446 -74.295776 681.038391 28 28 28 0.138408 0.114863 0.983692
60.220432 -74.255348 680.630432 22 22 22 0.140016 0.112188 0.983773
62.789944 -74.339249 680.315552 24 24 24 0.134828 0.118950 0.983703
65.298111 -74.328293 679.910522 22 22 22 0.140807 0.107172 0.984219
67.371971 -74.747559 679.715271 21 21 21 -0.148652 -0.106920 -0.983093
46.315712 -71.244087 682.104492 82 82 82 0.152976 0.060687 0.986365
48.116634 -71.529755 682.003174 59 59 59 0.095597 0.034828 0.994811
50.302757 -71.792198 681.819214 48 48 48 0.122027 0.094063 0.988059
52.847309 -71.753517 681.419128 28 28 28 0.146333 0.101037 0.984062
55.356052 -71.758415 681.040955 37 37 37 0.135072 0.104719 0.985287
57.728733 -71.869736 680.740051 31 31 31 0.137645 0.100267 0.985394
60.194687 -71.798195 680.382935 28 28 28 0.149958 0.090115 0.984577
62.727371 -71.757408 679.957458 29 29 29 0.127950 0.098919 0.986835
64.857597 -71.969841 679.760498 31 31 31 -0.135713 -0.093150 -0.986359
46.307755 -68.658539 682.031982 68 68 68 -0.164540 -0.029634 -0.985925
47.868080 -69.251251 681.886963 69 69 69 -0.144127 -0.038161 -0.988823
50.279354 -69.329956 681.544800 65 65 65 0.134710 0.052168 0.989511
52.827560 -69.298912 681.206726 48 48 48 0.137500 0.051879 0.989142
55.368946 -69.262032 680.809692 45 45 45 0.134624 0.060708 0.989035
57.789337 -69.217690 680.494080 45 45 45 0.138615 0.052046 0.988978
60.185432 -69.217278 680.161011 42 42 42 0.143168 0.051392 0.988363
62.508026 -69.289650 679.811829 38 38 38 0.134843 0.057625 0.989190
64.412323 -69.960449 679.682373 36 36 36 -0.155825 -0.107189 -0.981952
46.308678 -66.694160 682.078491 54 54 54 -0.147451 0.004746 -0.989058
47.727955 -66.786888 681.912109 52 52 52 -0.127140 0.001326 -0.991884
50.276203 -66.754028 681.545349 53 53 53 0.140483 0.007744 0.990053
52.822216 -66.721489 681.180542 49 49 49 0.151442 0.014256 0.988363
55.336830 -66.713440 680.769165 49 49 49 0.144291 0.017122 0.989387
57.873779 -66.785568 680.428345 53 53 53 0.133183 0.019315 0.990903
60.286148 -66.763184 680.110901 50 50 50 0.147929 0.014357 0.988894
62.444851 -66.858932 679.739868 49 49 49 0.162440 0.014193 0.986616
46.242809 -64.383621 682.082397 61 61 61 0.144138 0.017556 0.989402
47.723217 -64.207672 681.885986 58 58 58 0.147139 0.024414 0.988814
50.237045 -64.218452 681.502441 59 59 59 0.145014 0.023821 0.989143
52.815765 -64.286041 681.136292 58 58 58 0.150120 0.018740 0.988490
55.383522 -64.286514 680.738647 58 58 58 0.145602 0.016859 0.989200
57.912094 -64.349503 680.376587 59 59 59 0.134617 0.017494 0.990743
60.298695 -64.337883 680.068054 58 58 58 0.138247 0.023830 0.990111
62.326923 -64.366318 679.755737 58 58 58 0.151748 0.009867 0.988370
45.796574 -61.559479 682.062500 59 59 59 0.148351 0.042065 0.988040
47.713802 -61.765762 681.788818 59 59 59 0.145115 0.038479 0.988666
50.295307 -61.786434 681.417480 59 59 59 0.140537 0.032943 0.989527
52.807987 -61.849686 681.073853 59 59 59 0.140743 0.034833 0.989433
55.349880 -61.818359 680.695068 59 59 59 0.143137 0.028888 0.989281
57.891487 -61.789490 680.341675 59 59 59 0.139933 0.027704 0.989773
60.287960 -61.760384 679.986328 59 59 59 -0.140609 -0.033907 -0.989485
62.159321 -61.885967 679.735291 57 57 57 -0.145398 -0.025750 -0.989038
45.540009 -59.243832 681.981140 58 58 58 0.150129 0.038161 0.987930
47.705021 -59.325588 681.699524 58 58 58 0.138830 0.040901 0.989471
50.251907 -59.296200 681.330994 59 59 59 0.143139 0.038105 0.988969
52.796108 -59.266605 680.958557 58 58 58 0.141448 0.037460 0.989237
55.339336 -59.238609 680.603149 58 58 58 0.138374 0.036866 0.989694
57.880222 -59.210682 680.246948 58 58 58 0.143388 0.038201 0.988929
60.275936 -59.182480 679.888367 59 59 59 0.140740 0.038268 0.989307
61.852592 -59.417286 679.694214 58 58 58 -0.144504 -0.037911 -0.988778
43.913933 -56.111221 682.081055 59 59 59 0.136911 0.054939 0.989059
45.361580 -56.724735 681.925781 59 59 59 -0.143441 -0.045205 -0.988626
47.694958 -56.741920 681.592407 58 58 58 0.138826 0.041658 0.989440
50.241650 -56.714134 681.228088 59 59 59 0.137105 0.042834 0.989630
52.787460 -56.688080 680.883057 58 58 58 0.141121 0.039715 0.989195
55.302311 -56.768257 680.514832 58 58 58 0.141866 0.040153 0.989071
57.869492 -56.775928 680.155029 58 58 58 0.141860 0.038773 0.989127
60.186127 -56.781254 679.809082 58 58 58 -0.146899 -0.037149 -0.988454
61.593201 -57.450806 679.641663 59 59 59 -0.141017 -0.046697 -0.988905
43.594299 -54.093307 682.049255 58 58 58 -0.143859 -0.050793 -0.988294
45.276554 -54.182690 681.804993 58 58 58 0.138093 0.050908 0.989110
47.684616 -54.301758 681.477173 57 57 57 0.138171 0.053477 0.988964
50.231068 -54.275543 681.117615 58 58 58 0.137890 0.053179 0.989019
52.775837 -54.250050 680.765808 58 58 58 0.138879 0.057977 0.988611
55.342697 -54.337482 680.400513 56 56 56 0.139718 0.052546 0.988796
57.858101 -54.341446 680.053528 57 57 57 0.136819 0.053255 0.989164
60.051189 -54.388481 679.749207 58 58 58 -0.144371 -0.039259 -0.988745
41.337219 -50.960751 682.110962 60 60 60 -0.143544 -0.083344 -0.986128
43.140198 -51.681343 681.967468 60 60 60 0.131356 0.068716 0.988951
45.265682 -51.741325 681.672302 60 60 60 0.140387 0.068462 0.987727
47.672215 -51.860458 681.331421 59 59 59 0.139119 0.070343 0.987774
50.217728 -51.835102 680.967896 60 60 60 0.140694 0.070510 0.987539
52.760860 -51.809776 680.603516 59 59 59 0.137142 0.069503 0.988110
55.302650 -51.785507 680.251465 59 59 59 0.140186 0.068403 0.987760
57.801529 -51.797462 679.893738 59 59 59 -0.142855 -0.074687 -0.986922
59.750359 -52.431328 679.682007 59 59 59 -0.138666 -0.075539 -0.987454
40.982655 -48.978619 682.033630 60 60 60 -0.140409 -0.078714 -0.986959
42.843899 -49.320595 681.832703 59 59 59 0.132930 0.083689 0.987586
45.391476 -49.294521 681.444763 59 59 59 0.144890 0.086097 0.985695
47.795971 -49.270786 681.089661 59 59 59 0.140202 0.087406 0.986257
50.200352 -49.249249 680.763245 58 58 58 0.135219 0.086428 0.987039
52.743481 -49.226009 680.410339 59 59 59 0.137953 0.085426 0.986748
55.284592 -49.203056 680.060181 59 59 59 0.139380 0.085726 0.986521
57.451214 -49.377201 679.760742 58 58 58 -0.153422 -0.080317 -0.984891
38.633785 -46.277092 682.081726 58 58 58 -0.147450 -0.120405 -0.981713
40.376972 -46.643482 681.912415 58 58 58 -0.137855 -0.105581 -0.984809
42.825436 -46.728886 681.568787 58 58 58 0.137494 0.104942 0.984927
45.373554 -46.705814 681.205322 58 58 58 0.142329 0.102278 0.984521
47.778057 -46.684258 680.863892 57 57 57 0.136658 0.102170 0.985336
50.181030 -46.805946 680.529053 57 57 57 0.137375 0.103894 0.985055
52.723824 -46.784401 680.184448 57 57 57 0.137755 0.109555 0.984389
55.205238 -46.804398 679.833557 57 57 57 0.137990 0.107213 0.984614
56.961643 -47.500275 679.656677 57 57 57 -0.146220 -0.097496 -0.984436
36.277157 -43.325924 682.053284 47 47 47 -0.118435 -0.014339 -0.992858
37.888729 -44.070217 681.948730 51 51 51 0.122359 0.058061 0.990786
40.256832 -44.303207 681.652222 52 52 52 0.140188 0.063170 0.988108
42.805702 -44.280720 681.280945 52 52 52 0.149126 0.072363 0.986167
45.352184 -44.258430 680.910828 51 51 51 0.131165 0.071731 0.988762
47.882450 -44.224262 680.573547 51 51 51 0.135358 0.067259 0.988511
50.265831 -44.388149 680.240540 51 51 51 0.136215 0.083824 0.987127
52.673607 -44.368980 679.888428 51 51 51 0.139994 0.116656 0.983256
54.429222 -44.848927 679.697815 53 53 53 -0.137971 -0.123312 -0.982730
36.278248 -41.755402 682.089722 46 46 46 -0.141775 0.060200 -0.988067
38.071510 -41.857574 681.937073 49 49 49 0.132012 -0.023150 0.990978
40.255070 -41.873394 681.647034 48 48 48 0.139360 0.009364 0.990198
42.801994 -41.850365 681.247192 45 45 45 0.147010 0.013127 0.989048
45.349018 -41.829922 680.888123 46 46 46 0.140558 0.011290 0.990008
47.892139 -41.808243 680.506775 46 46 46 0.147892 0.019146 0.988818
50.289837 -41.786335 680.122070 41 41 41 0.143989 0.026242 0.989231
52.602921 -41.688652 679.820740 42 42 42 0.130251 0.012904 0.991397
54.444603 -41.374660 679.696594 33 33 33 0.127793 -0.038633 0.991048
36.277695 -39.668564 682.099304 58 58 58 -0.131646 -0.017329 -0.991145
37.873554 -39.189323 681.902588 61 61 61 0.142850 0.042111 0.988848
40.249920 -39.297867 681.584595 54 54 54 0.138919 0.013959 0.990206
42.798618 -39.278122 681.217163 54 54 54 0.138708 0.008370 0.990298
45.346306 -39.259689 680.871277 49 49 49 0.144039 0.018243 0.989404
47.890041 -39.240036 680.501953 38 38 38 0.150074 0.015310 0.988556
50.286644 -39.218605 680.102722 46 46 46 0.158452 0.004098 0.987358
52.652271 -39.185272 679.822083 40 40 40 -0.130779 -0.003524 -0.991405
54.103180 -39.267029 679.660889 37 37 37 -0.134575 -0.056542 -0.989289
36.019123 -35.986946 682.047974 60 60 60 0.111529 0.025276 0.993440
37.832932 -36.766022 681.888123 57 57 57 0.133059 -0.016665 0.990968
40.248260 -36.726131 681.579712 52 52 52 0.135360 0.010366 0.990742
42.796391 -36.707180 681.203674 63 63 63 0.144511 0.011200 0.989440
45.341373 -36.687939 680.820740 47 47 47 0.152120 0.022372 0.988109
47.860126 -36.726788 680.414734 36 36 36 0.141686 0.021216 0.989684
50.258724 -36.755554 680.097961 40 40 40 0.135179 0.011987 0.990749
52.525627 -36.839569 679.800781 37 37 37 0.155392 0.033022 0.987301
35.856770 -34.592072 682.046448 113 113 113 -0.107625 -0.031994 -0.993677
37.751896 -34.147804 681.863892 72 72 72 0.145637 -0.022019 0.989093
40.244011 -34.295052 681.526794 69 69 69 0.136019 0.003679 0.990699
42.793343 -34.278568 681.175598 83 83 83 0.148337 0.009148 0.988895
45.335377 -34.258472 680.750183 69 69 69 0.159314 0.014610 0.987120
47.900658 -34.308449 680.374084 68 68 68 0.133228 -0.005193 0.991072
50.305164 -34.336617 680.063904 53 53 53 -0.154266 -0.008900 -0.987989
52.447956 -34.311844 679.739441 51 51 51 -0.171833 -0.035736 -0.984478
35.926235 -31.982870 682.004517 133 133 133 0.120921 -0.019547 0.992470
37.782330 -31.769129 681.899780 125 125 125 0.119769 -0.005613 0.992786
40.245312 -31.868828 681.566650 137 137 137 0.158909 -0.011476 0.987227
42.791958 -31.851526 681.172119 91 91 91 0.163387 0.009757 0.986514
45.332752 -31.831964 680.728271 105 105 105 0.143755 0.002558 0.989610
47.882530 -31.820425 680.455078 94 94 94 0.135443 -0.002359 0.990782
50.278107 -31.802565 680.047119 73 73 73 -0.158392 -0.000923 -0.987376
52.295555 -31.712923 679.746765 74 74 74 -0.127511 0.008356 -0.991802
54.097122 -30.788948 679.651978 88 88 88 0.125009 0.013227 0.992067
35.935913 -29.189278 682.026245 138 138 138 -0.151899 -0.030421 -0.987928
37.752827 -29.330624 681.903809 165 165 165 -0.117679 0.003512 -0.993045
40.245823 -29.299219 681.593445 132 132 132 -0.166412 -0.008406 -0.986020
42.787792 -29.279987 681.122803 129 129 129 0.164255 0.004921 0.986406
45.333767 -29.265514 680.760559 127 127 127 0.133803 -0.003819 0.991000
47.877010 -29.250912 680.394165 114 114 114 0.143534 0.000624 0.989645
50.277920 -29.237642 680.061646 94 94 94 0.160645 -0.001985 0.987010
52.122440 -29.316553 679.767517 93 93 93 0.114431 0.001414 0.993430
54.094105 -28.081434 679.631104 108 108 108 -0.116801 0.006899 -0.993131
36.148693 -26.910231 682.010132 131 131 131 -0.088115 0.012308 -0.996034
37.787868 -26.752121 681.908569 144 144 144 -0.160353 0.010768 -0.987001
40.240433 -26.725576 681.518494 124 124 124 -0.172151 -0.020991 -0.984847
42.787430 -26.711271 681.132874 145 145 145 0.139633 0.000266 0.990203
45.334679 -26.698750 680.789551 126 126 126 0.130936 -0.013612 0.991297
47.878693 -26.685776 680.433105 116 116 116 0.151749 -0.006402 0.988398
50.294025 -26.660423 680.057800 106 106 106 0.166250 0.005340 0.986069
52.231823 -26.761755 679.770386 95 95 95 0.126222 0.047772 0.990851
54.099174 -27.799223 679.696533 150 150 150 -0.116801 0.006899 -0.993131
35.556286 -23.912006 682.084290 73 73 73 -0.121785 -0.009700 -0.992509
37.839592 -24.176929 681.902405 70 70 70 -0.146242 -0.019338 -0.989060
40.237705 -24.296875 681.485168 100 100 100 0.148324 0.003570 0.988932
42.786530 -24.285044 681.131409 126 126 126 0.124705 -0.014429 0.992089
45.338234 -24.276056 680.856567 89 89 89 0.132029 -0.019797 0.991048
47.879398 -24.262672 680.456177 68 68 68 0.161651 -0.002644 0.986845
50.273754 -24.248474 680.033875 82 82 82 -0.178378 0.004005 -0.983954
52.179413 -24.482662 679.732971 89 89 89 0.105221 0.014539 0.994343
54.521797 -23.524450 679.655884 45 45 45 -0.085064 0.020775 -0.996159
35.795475 -21.507633 682.114807 36 36 36 0.150351 -0.070353 0.986126
37.960819 -21.846233 681.813782 34 34 34 0.155511 -0.035180 0.987208
40.239769 -21.871065 681.530945 49 49 49 0.132361 0.028194 0.990801
42.789570 -21.860825 681.190979 54 54 54 0.123902 -0.010145 0.992243
45.339169 -21.851669 680.883057 45 45 45 0.146354 0.009272 0.989189
47.878868 -21.838844 680.459900 33 33 33 0.164766 0.003719 0.986326
50.276596 -21.827541 680.083740 32 32 32 0.160704 -0.010252 0.986949
52.634674 -21.727064 679.759583 39 39 39 -0.113901 0.035549 -0.992856
54.098770 -22.814186 679.717834 27 27 27 0.078455 -0.008064 0.996885
33.698704 -18.458822 682.113342 91 91 91 0.146552 0.016072 0.989072
37.795563 -19.254702 681.708374 46 46 46 0.231387 0.033576 0.972282
40.229759 -19.296469 681.370422 99 99 99 0.112075 0.009527 0.993654
42.789219 -19.291985 681.194702 99 99 99 0.111718 0.008480 0.993704
45.332256 -19.281189 680.789795 48 48 48 0.150393 0.016408 0.988490
47.875031 -19.271164 680.414734 67 67 67 0.145061 0.005721 0.989406
50.274849 -19.262039 680.070129 45 45 45 0.158128 -0.017822 0.987258
52.349403 -19.309740 679.800659 28 28 28 -0.153807 0.023418 -0.987824
55.328823 -20.011499 679.660950 25 25 25 0.143364 0.046713 0.988567
36.230610 -16.572292 681.741699 112 112 112 0.237198 0.002655 0.971458
37.755402 -16.763638 681.766846 179 179 179 -0.062405 -0.071176 -0.995510
40.231792 -16.741762 681.535522 203 203 203 -0.077412 0.091043 0.992834
42.803852 -16.751034 681.153137 124 124 124 -0.358378 0.088146 -0.929406
45.332802 -16.714071 680.804688 144 144 144 0.146509 -0.025886 0.988871
47.875198 -16.705324 680.425110 129 129 129 0.102418 -0.014640 0.994634
50.282436 -16.699715 680.179443 60 60 60 0.125496 -0.045220 0.991063
52.348110 -16.703764 679.925842 17 17 17 -0.204589 0.015272 -0.978729
36.064552 -14.483779 681.823242 125 125 125 0.497619 -0.157007 0.853067
37.824978 -14.285778 681.307617 153 153 153 -0.154028 -0.136887 -0.978538
40.147549 -14.252524 681.542114 210 210 210 -0.225288 -0.000736 0.974292
42.837658 -14.379048 681.273254 201 201 201 -0.003111 -0.037930 0.999276
45.334473 -14.287377 680.900452 151 151 151 -0.259845 0.057058 -0.963963
47.874527 -14.294553 680.365540 176 176 176 -0.100084 0.010904 -0.994919
50.296005 -14.280931 680.367737 125 125 125 -0.023730 0.011619 0.999651
52.459583 -14.238621 679.937561 17 17 17 0.246843 -0.019718 0.968855
35.634892 -11.235502 681.415344 151 151 151 0.116388 0.001534 0.993203
37.555466 -12.314898 681.521729 210 210 210 0.150382 0.024191 0.988332
40.432777 -12.170493 681.670471 242 242 242 -0.077144 -0.250353 0.965076
42.819195 -12.151011 681.513367 185 185 185 -0.212422 -0.392073 0.895073
45.308205 -11.939168 680.571777 160 160 160 0.160420 0.587048 0.793498
47.673183 -11.932522 680.855225 199 199 199 -0.038845 -0.583477 0.811200
50.185814 -11.985408 680.329895 30 30 30 0.197016 0.240654 0.950405
52.514065 -11.924606 679.940063 17 17 17 -0.089001 -0.123506 -0.988345
54.235683 -11.703615 679.680725 17 17 17 0.175864 0.121896 0.976838
33.689365 -8.788502 681.944458 200 200 200 0.037814 -0.371237 0.927768
35.056381 -9.998965 681.674011 194 194 194 0.267508 0.136126 -0.953892
37.220753 -9.350853 681.014648 213 213 213 -0.108853 -0.834051 -0.540842
40.315491 -8.454576 681.874512 163 163 163 -0.370297 -0.106443 -0.922795
42.803883 -9.259562 681.588013 53 53 53 -0.081304 0.280124 0.956515
45.459362 -8.964474 680.484863 182 182 182 0.687135 0.187639 -0.701882
47.527908 -9.254042 680.908813 234 234 234 0.576231 -0.016796 -0.817115
50.766899 -9.446067 680.167175 19 19 19 -0.094846 -0.072440 0.992853
52.391464 -9.321672 680.164734 16 16 16 0.092463 0.031282 0.995225
55.852737 -8.550922 679.913940 44 44 44 0.074313 -0.062057 0.995302
56.769035 -9.211987 679.717224 23 23 23 0.250076 -0.010629 0.968168
64.168068 -9.662805 679.659119 40 40 40 -0.050215 -0.083590 0.995234
35.939411 -6.537684 680.914124 126 126 126 -0.511711 -0.612011 0.602987
37.842201 -6.688049 681.739929 245 245 245 -0.190554 -0.252513 0.948644
40.607380 -6.644820 681.834106 253 253 253 0.322516 0.035759 -0.945888
42.950451 -6.795204 681.435120 144 144 144 -0.108955 -0.281745 0.953283
45.335106 -6.690472 680.577026 167 167 167 0.527545 -0.157203 0.834855
47.743370 -6.657561 680.900330 215 215 215 -0.120130 0.502494 0.856194
50.239552 -6.517830 680.388916 26 26 26 0.220575 0.605173 0.764926
52.396778 -6.677172 680.174011 15 15 15 0.151250 -0.048692 0.987296
55.627571 -7.141471 679.760254 13 13 13 0.144877 0.278774 0.949366
33.736015 -3.442370 681.838196 33 33 33 0.479715 0.333903 0.811408
35.161102 -4.641697 681.740051 138 138 138 0.269234 0.157845 0.950051
37.615891 -4.728944 681.953796 248 248 248 0.159552 -0.028688 0.986773
39.865265 -4.487920 681.767517 202 202 202 -0.184742 -0.386989 0.903388
42.826145 -4.222245 681.020874 40 40 40 -0.306875 -0.282499 -0.908857
45.316833 -4.221009 680.686829 201 201 201 0.055298 0.117128 0.991576
47.805630 -4.236772 681.276855 122 122 122 0.081805 -0.413350 0.906890
50.156868 -4.283136 680.260193 18 18 18 -0.252814 0.086961 -0.963599
52.654015 -4.261395 680.098206 15 15 15 0.190920 0.006817 0.981582
55.162823 -4.084308 679.690552 12 12 12 -0.043886 0.019435 -0.998847
32.878445 -2.051321 681.914307 47 47 47 -0.285235 0.050932 -0.957104
37.409016 -2.513263 682.030701 254 254 254 0.068051 -0.098822 0.992776
41.017326 -1.692591 681.430847 56 56 56 -0.095425 0.062389 -0.993480
42.779522 -1.896732 680.997253 145 145 145 0.090969 -0.327209 0.940563
45.350754 -1.806095 680.973267 221 221 221 -0.130739 -0.118691 0.984286
48.004227 -1.665171 681.164490 55 55 55 -0.549232 -0.105639 -0.828966
50.261852 -1.906110 680.383850 19 19 19 0.202850 -0.002800 0.979206
52.682331 -1.874481 680.058350 13 13 13 -0.171088 0.003103 -0.985251
54.658615 -1.893174 679.724976 12 12 12 -0.185961 -0.026586 -0.982197
33.833664 1.186528 681.967773 21 21 21 -0.205230 0.127790 -0.970335
34.373447 0.915070 681.904846 78 78 78 -0.123754 -0.003057 -0.992308
38.553829 0.687105 682.052551 223 223 223 0.173496 0.106121 0.979100
40.814980 0.779741 681.625244 56 56 56 0.103260 -0.058053 0.992959
42.786507 0.726965 681.229858 60 60 60 -0.134390 -0.246608 -0.959752
45.347954 0.686908 681.039124 190 190 190 -0.089529 -0.092444 0.991685
47.987629 0.660182 681.106934 38 38 38 -0.196816 0.000056 -0.980440
50.295021 0.686846 680.358032 20 20 20 0.232500 0.011608 0.972527
52.698483 0.686955 680.078064 13 13 13 0.143369 -0.044462 0.988670
54.726948 0.883653 679.793701 13 13 13 -0.237074 0.024152 -0.971191
57.425503 0.022555 679.747803 120 120 120 0.130439 -0.058455 0.989731
62.590672 0.556655 679.762207 29 29 29 0.014195 0.086707 -0.996133
38.271145 2.115981 682.105774 223 223 223 0.007233 -0.106634 0.994272
40.688496 3.363230 681.563782 29 29 29 0.240482 -0.019055 0.970467
42.792774 3.255994 681.262939 121 121 121 0.071983 -0.004342 0.997396
45.307537 3.219428 681.317139 155 155 155 -0.044423 -0.278761 0.959332
47.969376 3.263387 681.060486 15 15 15 -0.480500 0.001100 -0.876994
50.281498 3.256999 680.408386 13 13 13 0.212099 -0.004663 0.977237
52.703339 3.252233 680.134888 13 13 13 0.159886 -0.012646 0.987054
54.894211 3.105366 679.786133 13 13 13 -0.193313 -0.012166 -0.981062
61.444519 3.964647 679.760132 36 36 36 -0.145190 -0.129790 -0.980854
61.944454 2.967573 679.770142 26 26 26 -0.142356 -0.033286 -0.989256
38.475895 6.325586 682.006897 40 40 40 0.061855 -0.114975 0.991441
40.486050 5.675448 681.742798 32 32 32 0.168906 -0.182826 0.968527
42.799839 5.825727 681.365540 132 132 132 -0.027670 -0.150810 0.988176
45.275311 5.872471 681.662415 123 123 123 -0.227018 -0.005624 0.973875
47.728092 5.805357 681.093567 15 15 15 0.305187 0.204907 0.929986
50.164825 5.820193 680.516418 12 12 12 0.200166 -0.019712 0.979564
52.705353 5.817677 680.152893 13 13 13 0.178668 -0.024121 0.983614
55.261818 5.789929 679.852356 42 42 42 0.196328 0.027978 0.980139
57.990448 6.574634 679.666870 81 81 81 -0.007457 -0.115918 0.993231
37.838463 7.544862 682.019043 77 77 77 -0.039913 -0.083037 0.995747
40.648163 8.356910 681.822937 80 80 80 0.244241 0.037895 0.968974
42.735382 8.209977 681.779846 116 116 116 -0.134308 -0.131784 0.982138
45.445713 8.284931 681.629700 29 29 29 -0.320646 -0.034182 -0.946582
47.773506 8.249390 680.996643 13 13 13 0.281341 -0.003088 0.959603
50.172436 8.245414 680.610596 13 13 13 0.150585 -0.045125 0.987567
52.714508 8.242001 680.262695 12 12 12 -0.218482 0.049120 -0.974604
54.680885 8.326760 679.780762 14 14 14 -0.276075 0.082079 -0.957625
57.277569 8.201164 679.869446 54 54 54 -0.021582 0.053262 0.998347
38.557259 10.260738 682.082275 27 27 27 0.126676 0.139984 0.982017
40.789921 10.736616 681.807434 44 44 44 0.071763 -0.027963 0.997030
42.637627 10.540336 681.934509 68 68 68 -0.112888 0.015000 0.993495
45.395050 10.678716 681.502380 13 13 13 0.251601 -0.025766 0.967488
47.783215 10.677236 681.125183 13 13 13 0.151846 -0.123408 0.980670
50.180889 10.671552 680.714600 14 14 14 0.159429 -0.152996 0.975282
52.724789 10.667356 680.384705 13 13 13 0.155858 -0.158659 0.974954
55.020000 10.741114 679.924988 14 14 14 0.169890 -0.229353 0.958402
57.220280 10.873849 679.816406 58 58 58 0.048150 -0.032287 0.998318
59.447247 10.730850 679.730408 38 38 38 0.092467 -0.003791 0.995708
40.841324 12.118102 682.022217 26 26 26 0.216218 -0.334594 0.917222
42.589836 12.189345 681.979614 35 35 35 -0.201703 -0.411323 0.888892
45.461891 12.410980 681.719849 14 14 14 0.304986 -0.439361 0.844953
47.810314 12.631910 681.608887 13 13 13 0.100746 -0.516495 0.850343
50.244194 12.808599 681.270203 14 14 14 0.103792 -0.516538 0.849950
52.842899 12.992744 681.032043 13 13 13 0.085627 -0.528844 0.844389
55.354668 13.093601 680.728088 14 14 14 0.105023 -0.483389 0.869083
57.697746 13.398417 680.621216 13 13 13 0.149317 -0.541643 0.827241
60.127377 13.661583 680.486267 14 14 14 0.134742 -0.679924 0.720797
62.662971 14.018584 680.282837 14 14 14 0.132437 -0.691634 0.710002
65.149780 14.124215 680.049011 14 14 14 0.101005 -0.702705 0.704275
67.653107 14.319382 679.868408 14 14 14 0.117936 -0.705312 0.699018
57.973587 14.729657 682.040283 16 16 16 0.134327 -0.712557 0.688635
60.293404 15.069500 681.818481 16 16 16 0.138286 -0.717060 0.683156
62.884357 15.219867 681.512756 16 16 16 0.099114 -0.735554 0.670177
65.413391 15.311020 681.301880 16 16 16 0.106402 -0.732493 0.672407
67.865051 15.473438 681.030334 16 16 16 0.127111 -0.732273 0.669043
70.268654 15.687696 680.755127 16 16 16 -0.113759 0.736859 -0.666407
72.727333 15.910576 680.741699 15 15 15 -0.084768 0.728040 -0.680273
75.317940 16.051718 680.469116 15 15 15 0.106256 -0.708130 0.698041
77.801407 16.364674 680.385193 15 15 15 0.105203 -0.713459 0.692754
