ply
format ascii 1.0
element vertex 689
property float x
property float y
property float z
property uchar red
property uchar green
property uchar blue
property float nx
property float ny
property float nz
end_header
-179.955780 -136.091370 713.056030 38 38 38 0.136357 0.214247 0.967215
-177.511475 -136.247375 712.749939 37 37 37 0.139342 0.209737 0.967778
-175.030243 -136.128464 712.359924 38 38 38 0.139748 0.202832 0.969190
-172.571991 -136.092606 712.009888 40 40 40 0.142432 0.203384 0.968683
-170.020325 -136.260635 711.657104 40 40 40 0.143091 0.212132 0.966708
-167.544586 -136.211273 711.298950 41 41 41 -0.133168 -0.217854 -0.966854
-165.194122 -136.518219 711.054504 41 41 41 -0.135573 -0.211380 -0.967956
-163.197433 -136.985519 710.871277 43 43 43 0.142727 0.219654 0.965081
-186.648804 -132.770294 713.245544 38 38 38 0.139896 0.225066 0.964248
-184.701462 -133.331436 713.115234 36 36 36 -0.133341 -0.213574 -0.967784
-182.470093 -133.595688 712.856873 36 36 36 -0.134574 -0.213413 -0.967649
-179.917618 -133.772415 712.543030 38 38 38 0.134677 0.214944 0.967296
-177.431412 -133.724304 712.185608 35 35 35 0.135602 0.215826 0.966970
-174.918915 -133.642136 711.828796 36 36 36 0.142051 0.217201 0.965735
-172.445251 -133.661758 711.449951 38 38 38 0.151236 0.223803 0.962829
-170.017456 -133.850418 711.121521 39 39 39 0.142907 0.222002 0.964517
-167.912170 -134.355103 710.920898 40 40 40 0.141649 0.218325 0.965541
-189.623657 -130.668045 713.188599 36 36 36 0.158319 0.220611 0.962427
-187.400635 -131.177719 712.987671 37 37 37 0.131924 0.223945 0.965632
-184.991867 -131.142181 712.678650 35 35 35 0.132552 0.225031 0.965293
-182.541061 -131.135056 712.304260 33 33 33 0.137242 0.223280 0.965044
-180.002136 -131.298080 711.998901 33 33 33 0.135577 0.229009 0.963937
-177.500183 -131.183426 711.601379 34 34 34 0.133643 0.221304 0.966004
-175.075439 -131.173172 711.263794 33 33 33 -0.150122 -0.230946 -0.961316
-172.732117 -131.642136 711.014404 32 32 32 0.152764 0.245983 0.957160
-170.831116 -132.319962 710.851379 35 35 35 -0.145710 -0.234457 -0.961144
-194.672607 -128.208969 713.064331 9 9 9 0.122309 0.262946 0.957027
-192.452164 -128.364105 712.987976 15 15 15 0.080562 0.253275 0.964034
-189.954193 -128.734009 712.802734 12 12 12 -0.133971 -0.227143 -0.964602
-187.472473 -128.698288 712.427246 12 12 12 0.139864 0.224315 0.964428
-184.944077 -128.613754 712.042847 11 11 11 0.144983 0.234180 0.961322
-182.444962 -128.746597 711.725342 12 12 12 0.139055 0.242943 0.960022
-179.938232 -128.743195 711.345276 12 12 12 -0.136868 -0.247639 -0.959136
-177.559830 -129.001602 711.097534 15 15 15 -0.123160 -0.242629 -0.962270
-175.546661 -129.417908 710.968628 13 13 13 0.166152 0.258318 0.951664
-199.305283 -125.506081 713.230042 7 7 7 0.144671 0.192959 0.970483
-197.319870 -125.835266 713.056091 7 7 7 0.139068 0.183944 0.973049
-195.050461 -126.109642 712.768005 8 8 8 0.142208 0.174457 0.974342
-192.512695 -126.240280 712.524292 15 15 15 0.094472 0.180573 0.979014
-189.956879 -126.279793 712.268250 11 11 11 0.127405 0.206080 0.970206
-187.491241 -126.168320 711.830994 9 9 9 0.145021 0.207253 0.967479
-185.035248 -126.092453 711.497681 10 10 10 0.146086 0.202384 0.968349
-182.632355 -126.326233 711.097168 9 9 9 0.161623 0.219893 0.962042
-180.630249 -126.847992 710.965088 10 10 10 -0.141642 -0.250116 -0.957799
-203.916855 -122.742867 713.209717 9 9 9 0.116140 0.127378 0.985031
-202.038437 -123.078369 713.235962 8 8 8 0.106747 0.125027 0.986394
-199.947128 -123.583000 713.028015 8 8 8 0.134340 0.162637 0.977498
-197.516617 -123.650879 712.735535 8 8 8 0.134608 0.162699 0.977451
-194.991440 -123.615799 712.330322 8 8 8 0.129323 0.169424 0.977021
-192.536972 -123.725731 712.094666 12 12 12 0.117762 0.168461 0.978648
-189.991943 -123.764503 711.740051 10 10 10 0.142500 0.191190 0.971154
-187.460648 -123.680840 711.343872 10 10 10 0.136115 0.179926 0.974217
-185.052078 -123.807579 711.020935 10 10 10 0.138538 0.184983 0.972928
-183.170364 -124.393875 710.888794 10 10 10 0.155236 0.176525 0.971978
-204.507278 -120.569572 713.191284 8 8 8 -0.100983 -0.121064 -0.987495
-202.446136 -121.129601 713.000732 9 9 9 0.101941 0.141942 0.984612
-199.947861 -121.265358 712.658386 9 9 9 0.140508 0.165889 0.976083
-197.426178 -121.202530 712.277161 8 8 8 0.145029 0.166463 0.975324
-194.947800 -121.126152 711.896912 8 8 8 0.125994 0.169304 0.977477
-192.454819 -121.150650 711.627563 9 9 9 0.122330 0.174980 0.976943
-189.969574 -121.296692 711.294434 9 9 9 0.146113 0.166803 0.975104
-187.751205 -121.543289 710.981628 9 9 9 0.137992 0.178420 0.974230
-185.554810 -122.128639 710.850464 10 10 10 0.131715 0.183567 0.974143
-209.177261 -117.842758 713.244263 9 9 9 0.147314 0.177180 0.973091
-207.198227 -118.211731 713.168335 8 8 8 0.126921 0.198149 0.971920
-204.916504 -118.608383 712.933655 9 9 9 -0.138003 -0.170915 -0.975573
-202.429230 -118.684944 712.578369 9 9 9 0.148230 0.159539 0.976000
-199.956131 -118.768654 712.198914 9 9 9 0.139178 0.165627 0.976318
-197.515732 -118.692314 711.883911 9 9 9 0.140061 0.164322 0.976412
-195.029449 -118.607101 711.470520 8 8 8 0.134829 0.152434 0.979074
-192.553864 -118.688354 711.182861 8 8 8 0.118031 0.153152 0.981129
-190.418213 -119.006180 710.982117 8 8 8 0.128804 0.168126 0.977314
-188.358978 -119.831047 710.816101 10 10 10 0.172952 0.189699 0.966489
-209.772858 -115.999718 713.165222 10 10 10 0.154068 0.140237 0.978058
-207.504807 -116.187103 712.844299 9 9 9 0.130409 0.154100 0.979411
-205.023193 -116.117630 712.488098 10 10 10 0.127859 0.174040 0.976403
-202.515671 -116.166946 712.191956 10 10 10 0.135540 0.168271 0.976378
-199.986206 -116.297821 711.816162 9 9 9 0.142958 0.163959 0.976054
-197.450974 -116.221642 711.437378 10 10 10 0.131085 0.170806 0.976546
-194.960098 -116.189377 711.118103 10 10 10 0.126648 0.156409 0.979539
-192.610687 -116.828369 710.917175 8 8 8 -0.118385 -0.158431 -0.980247
-190.772079 -117.438858 710.829163 7 7 7 0.148984 0.171490 0.973856
-215.026215 -112.781761 713.262573 17 17 17 0.122740 0.181457 0.975709
-212.207062 -113.248070 713.041199 11 11 11 -0.123613 -0.179310 -0.975996
-209.999084 -113.803833 712.838318 11 11 11 -0.143800 -0.172134 -0.974521
-207.443527 -113.724388 712.429688 11 11 11 0.145807 0.163371 0.975731
-204.900558 -113.649902 712.052551 13 13 13 0.132347 0.161523 0.977954
-202.375168 -113.651398 711.707153 12 12 12 0.137443 0.174181 0.975075
-199.969162 -113.772888 711.383118 11 11 11 0.140804 0.167535 0.975759
-197.622238 -113.814651 711.042053 12 12 12 0.155121 0.187526 0.969934
-195.379166 -114.585213 710.889526 11 11 11 0.139432 0.225694 0.964168
-216.876038 -110.459557 713.244446 9 9 9 0.162890 0.177345 0.970575
-214.809860 -111.023247 713.016418 11 11 11 -0.137940 -0.158185 -0.977727
-212.468262 -111.105843 712.750916 12 12 12 0.124870 0.154858 0.980013
-209.964325 -111.277512 712.393433 11 11 11 0.145087 0.164695 0.975615
-207.502182 -111.214607 712.013794 13 13 13 0.134107 0.160432 0.977894
-205.092224 -111.185234 711.710938 13 13 13 0.136580 0.164158 0.976933
-202.542023 -111.106125 711.293335 13 13 13 0.152501 0.163731 0.974646
-200.108704 -111.539391 711.010376 13 13 13 -0.142353 -0.177590 -0.973754
-198.178848 -112.218941 710.864014 13 13 13 -0.173113 -0.156951 -0.972316
-219.420227 -107.976181 713.204041 11 11 11 0.159627 0.181608 0.970329
-217.455368 -108.739868 713.057678 9 9 9 0.151320 0.158460 0.975702
-215.040405 -108.633072 712.651611 10 10 10 0.144344 0.154202 0.977439
-212.556381 -108.606041 712.319092 12 12 12 0.132179 0.173810 0.975868
-210.026886 -108.746048 711.973022 12 12 12 0.143083 0.156355 0.977282
-207.484741 -108.773941 711.622986 11 11 11 0.142625 0.158169 0.977057
-204.954300 -108.715729 711.221375 11 11 11 0.141384 0.169814 0.975281
-202.639755 -108.997528 710.976562 13 13 13 0.142521 0.161657 0.976501
-224.104767 -105.034836 713.259644 9 9 9 0.120939 0.138140 0.983001
-222.297745 -105.675659 713.211853 12 12 12 0.088146 0.152430 0.984376
-220.000595 -106.140190 712.998718 13 13 13 -0.130123 -0.158714 -0.978712
-217.536530 -106.278008 712.713501 10 10 10 0.138799 0.160059 0.977300
-214.987595 -106.218330 712.290833 10 10 10 0.156062 0.158829 0.974894
-212.418320 -106.103432 711.831665 13 13 13 0.127848 0.164480 0.978060
-209.908340 -106.207848 711.595398 15 15 15 0.132105 0.152934 0.979367
-207.519241 -106.305351 711.215515 12 12 12 -0.160001 -0.167238 -0.972847
-205.244049 -106.541756 710.931213 12 12 12 0.132349 0.171571 0.976241
-224.797745 -103.311394 713.193787 9 9 9 -0.128465 -0.139820 -0.981808
-222.454636 -103.599098 712.910645 10 10 10 -0.108933 -0.145335 -0.983368
-219.898575 -103.598763 712.601685 10 10 10 0.134915 0.153583 0.978882
-217.409286 -103.787880 712.231567 11 11 11 0.149116 0.166002 0.974786
-215.006790 -103.710449 711.880676 10 10 10 0.153354 0.154158 0.976073
-212.577896 -103.655548 711.462402 12 12 12 0.132274 0.155109 0.979002
-210.022949 -103.629639 711.188293 15 15 15 -0.116631 -0.155508 -0.980926
-207.996796 -103.996094 710.929871 13 13 13 -0.177315 -0.139830 -0.974170
-227.217087 -100.792427 713.116272 8 8 8 0.139884 0.190136 0.971741
-224.884491 -101.212997 712.877075 8 8 8 -0.132795 -0.169983 -0.976459
-222.461929 -101.175583 712.593811 8 8 8 0.133025 0.150769 0.979578
-220.017242 -101.066536 712.191467 8 8 8 0.146579 0.162134 0.975821
-217.524231 -101.216927 711.842590 9 9 9 0.143758 0.158606 0.976820
-215.010483 -101.264084 711.502625 9 9 9 0.152883 0.159640 0.975265
-212.476379 -101.254005 711.063416 11 11 11 -0.150070 -0.164997 -0.974810
-210.532120 -101.537407 710.892700 14 14 14 0.107233 0.188493 0.976203
-208.581299 -102.187035 710.820190 15 15 15 0.144286 0.156707 0.977049
-231.622223 -97.745071 713.249451 8 8 8 -0.152949 -0.149873 -0.976803
-229.727570 -98.532433 713.153015 9 9 9 -0.136259 -0.167751 -0.976367
-227.480896 -98.793365 712.876282 9 9 9 0.151102 0.149877 0.977090
-225.014877 -98.715553 712.489380 9 9 9 0.136122 0.145218 0.979991
-222.506485 -98.681694 712.159729 8 8 8 0.136004 0.159096 0.977850
-219.956848 -98.619003 711.798645 9 9 9 0.143242 0.161328 0.976450
-217.398483 -98.654533 711.411377 9 9 9 0.139798 0.149655 0.978805
-215.065735 -98.849121 711.100403 8 8 8 0.160127 0.152702 0.975214
-213.045898 -99.377701 710.852417 10 10 10 0.163156 0.160119 0.973520
-234.429260 -95.112671 713.229431 8 8 8 0.077505 0.139158 0.987232
-232.213669 -95.791107 713.112732 7 7 7 0.194631 0.136457 0.971338
-230.004257 -96.075539 712.811584 8 8 8 0.140346 0.134899 0.980870
-227.509003 -96.256889 712.476807 8 8 8 0.136166 0.143950 0.980172
-224.928024 -96.279320 712.144958 9 9 9 0.136765 0.153429 0.978650
-222.401810 -96.243446 711.754333 9 9 9 0.145570 0.158569 0.976558
-219.983490 -96.137383 711.366394 8 8 8 0.129409 0.149057 0.980324
-217.620605 -96.138397 711.043823 11 11 11 0.139934 0.140618 0.980125
-215.664261 -96.751762 710.932861 11 11 11 -0.152649 -0.163813 -0.974609
-236.725098 -92.913620 713.271484 8 8 8 -0.165738 -0.156348 -0.973697
-234.814240 -93.539268 713.103943 8 8 8 0.081000 0.141762 0.986581
-232.442001 -93.671074 712.802551 8 8 8 0.106344 0.154731 0.982217
-229.958939 -93.672394 712.492920 8 8 8 0.134741 0.147325 0.979868
-227.473450 -93.652351 712.129456 7 7 7 0.151402 0.140926 0.978375
-225.071259 -93.713127 711.719299 8 8 8 0.147519 0.148663 0.977823
-222.543823 -93.755775 711.384033 9 9 9 0.132767 0.137002 0.981633
-220.090912 -93.834717 711.012634 9 9 9 -0.125540 -0.129842 -0.983555
-218.300797 -94.022476 710.943604 10 10 10 0.143304 0.139067 0.979859
-238.965881 -90.362411 713.242065 9 9 9 -0.157761 -0.152378 -0.975650
-237.307297 -90.933517 713.105835 9 9 9 0.138548 0.136699 0.980876
-234.930328 -91.319305 712.846252 9 9 9 0.132901 0.135034 0.981888
-232.486008 -91.232399 712.483582 9 9 9 0.142042 0.141475 0.979698
-230.033981 -91.141304 712.087708 8 8 8 0.144037 0.151486 0.977909
-227.509140 -91.111076 711.714417 8 8 8 0.142850 0.145629 0.978972
-224.940338 -91.168419 711.355957 8 8 8 0.133702 0.124785 0.983134
-222.456512 -91.458443 711.039978 11 11 11 0.135181 0.141846 0.980615
-220.785645 -91.900253 710.965393 8 8 8 0.141284 0.167938 0.975621
-241.727890 -87.854530 713.162842 6 6 6 0.151550 0.176112 0.972634
-239.856277 -88.402908 713.120300 6 6 6 0.113172 0.127554 0.985354
-237.480026 -88.624115 712.831482 6 6 6 0.140297 0.148350 0.978933
-235.032776 -88.704979 712.459473 7 7 7 0.147487 0.141199 0.978933
-232.495483 -88.769028 712.080750 8 8 8 0.142428 0.155869 0.977455
-229.963440 -88.732513 711.745667 9 9 9 0.134870 0.141686 0.980681
-227.426117 -88.657776 711.372009 9 9 9 0.136687 0.134835 0.981395
-224.932526 -88.710648 711.030884 10 10 10 0.140756 0.144897 0.979384
-223.123962 -89.396683 710.939636 12 12 12 -0.145822 -0.152500 -0.977486
-244.500809 -85.381897 713.152954 9 9 9 -0.198838 -0.155513 -0.967615
-242.115952 -86.132584 713.046265 10 10 10 -0.064800 -0.099672 -0.992908
-239.978363 -86.153542 712.879822 8 8 8 -0.084507 -0.103990 -0.990982
-237.466125 -86.113693 712.379517 8 8 8 -0.206127 -0.143100 -0.968005
-234.903656 -86.158310 712.078979 8 8 8 0.143154 0.138680 0.979936
-232.472946 -86.255409 711.667725 9 9 9 0.137562 0.132752 0.981557
-230.052261 -86.232162 711.385803 11 11 11 0.127849 0.138170 0.982122
-227.682037 -86.347618 711.069580 10 10 10 0.138487 0.149660 0.978991
-226.067734 -86.639732 710.921814 8 8 8 -0.173686 -0.146678 -0.973817
-244.478195 -83.481979 713.044434 12 12 12 -0.195861 -0.121080 -0.973128
-242.498688 -83.775307 712.834656 19 19 19 0.107535 0.109333 0.988171
-239.965820 -83.745163 712.526855 16 16 16 0.160706 0.181915 0.970093
-237.444672 -83.686478 712.070190 19 19 19 0.146643 0.132086 0.980331
-234.990631 -83.604553 711.733765 18 18 18 0.138214 0.132968 0.981436
-232.471115 -83.614105 711.356689 16 16 16 0.124980 0.121345 0.984711
-230.083191 -83.835640 711.086548 16 16 16 -0.143790 -0.124352 -0.981764
-228.332336 -84.402016 710.880859 13 13 13 0.161396 0.163498 0.973252
-244.805069 -81.116188 712.860535 9 9 9 -0.160489 -0.146648 -0.976083
-242.462616 -81.274010 712.505005 11 11 11 0.132919 0.126179 0.983062
-240.045670 -81.240662 712.209045 13 13 13 0.151674 0.132076 0.979567
-237.544037 -81.217934 711.762695 12 12 12 0.148565 0.128582 0.980508
-234.988953 -81.168129 711.418213 12 12 12 0.145369 0.126041 0.981316
-232.557892 -81.180069 711.010742 12 12 12 0.134670 0.138644 0.981143
-230.239655 -81.909302 710.930725 17 17 17 -0.141816 -0.156512 -0.977442
-244.925690 -78.635719 712.475769 11 11 11 -0.150475 -0.130254 -0.979995
-242.497375 -78.614021 712.147339 11 11 11 0.138612 0.125078 0.982417
-240.037003 -78.746193 711.839172 12 12 12 0.146964 0.134625 0.979938
-237.443665 -78.778893 711.442200 11 11 11 0.140822 0.125521 0.982045
-234.907867 -78.731804 711.088623 11 11 11 0.144040 0.126772 0.981418
-233.139862 -79.448349 710.916138 10 10 10 0.168156 0.113855 0.979163
-244.837433 -76.169975 712.217285 15 15 15 -0.143650 -0.122225 -0.982052
-242.421631 -76.119545 711.805237 14 14 14 0.146105 0.126592 0.981136
-239.911438 -76.195663 711.467773 15 15 15 0.140847 0.124704 0.982146
-237.589661 -76.163544 711.112244 16 16 16 0.134647 0.092879 0.986531
-235.379700 -76.718178 710.904968 16 16 16 -0.118143 -0.106216 -0.987300
-244.770096 -73.764961 711.849792 13 13 13 0.137910 0.122355 0.982858
-242.449203 -73.682243 711.523315 16 16 16 0.136993 0.110565 0.984382
-239.989639 -73.594368 711.173096 15 15 15 0.148334 0.117072 0.981983
-237.731689 -73.958862 710.883545 21 21 21 0.133722 0.091632 0.986774
-236.140701 -74.337418 710.839600 22 22 22 0.131329 0.088085 0.987418
-244.751892 -71.279587 711.531189 14 14 14 -0.120965 -0.110692 -0.986466
-242.528610 -71.246300 711.278992 14 14 14 0.126081 0.103378 0.986619
-240.163208 -71.532448 710.960205 14 14 14 0.161970 0.115416 0.980023
-244.671478 -68.658020 711.243286 11 11 11 0.178727 0.055006 0.982360
-242.656876 -68.885162 711.032715 11 11 11 0.132733 0.085278 0.987476
-240.925934 -69.750175 710.918884 14 14 14 -0.160409 -0.143152 -0.976615
-244.626572 -66.102837 711.158081 21 21 21 0.130548 0.044727 0.990433
-242.828522 -66.240723 710.939148 23 23 23 -0.165742 -0.036493 -0.985494
-244.784790 -63.785610 711.034851 21 21 21 -0.138774 -0.079773 -0.987106
-243.306076 -64.088135 710.876526 21 21 21 0.136739 0.081804 0.987224
-244.989868 -61.699642 710.879456 20 20 20 0.142700 0.101088 0.984590
-244.710968 14.874733 711.116028 7 7 7 0.128391 -0.747521 0.651712
-243.366562 14.918442 710.904236 8 8 8 0.128391 -0.747521 0.651712
-244.607544 16.078526 712.380737 8 8 8 0.124122 -0.713602 0.689468
-242.438141 16.220032 712.142822 9 9 9 0.117663 -0.713274 0.690938
-240.019928 16.500286 712.006592 9 9 9 0.119593 -0.715798 0.687990
-237.542252 16.620127 711.744873 10 10 10 0.113930 -0.712723 0.692131
-235.106552 16.822916 711.516479 10 10 10 0.115619 -0.706419 0.698287
-232.489395 16.988388 711.237305 10 10 10 0.119639 -0.704315 0.699733
-230.062988 17.222801 711.063843 11 11 11 0.114727 -0.689647 0.714999
-228.105347 17.295971 710.831604 11 11 11 0.132440 -0.693405 0.708272
-239.635147 17.747803 713.176453 10 10 10 0.122424 -0.668767 0.733324
-237.396927 17.922302 712.982727 10 10 10 0.127172 -0.656357 0.743655
-234.849655 18.183571 712.749817 11 11 11 0.136450 -0.655449 0.742811
-232.402374 18.426565 712.536682 11 11 11 0.128736 -0.647321 0.751267
-229.939255 18.654200 712.323792 11 11 11 0.136965 -0.628185 0.765914
-227.463242 18.790518 711.990906 12 12 12 0.109235 -0.625093 0.772869
-225.036758 19.005440 711.818665 11 11 11 0.122107 -0.627767 0.768764
-222.537567 19.237288 711.529968 12 12 12 0.135746 -0.606660 0.783286
-220.055023 19.515505 711.326233 12 12 12 0.120824 -0.598937 0.791629
-217.469620 19.713680 711.087097 12 12 12 0.143564 -0.592895 0.792380
-215.815521 19.978991 710.918945 13 13 13 0.144400 -0.592435 0.792571
-229.016098 20.064909 713.178833 13 13 13 0.147419 -0.574304 0.805259
-227.345581 20.386812 713.127014 12 12 12 0.125553 -0.573037 0.809855
-224.900070 20.626865 712.977661 13 13 13 0.134659 -0.553641 0.821796
-222.398331 21.057793 712.799805 13 13 13 0.152850 -0.551409 0.820113
-219.956268 21.351061 712.570190 13 13 13 0.139498 -0.529033 0.837057
-217.505219 21.361210 712.204651 13 13 13 -0.153474 0.518519 -0.841180
-214.996002 21.356260 711.783508 13 13 13 0.137813 -0.517768 0.844348
-212.546616 21.536362 711.470581 14 14 14 0.145668 -0.497411 0.855198
-210.049530 21.848236 711.270081 14 14 14 0.133389 -0.501398 0.854873
-207.690018 22.082516 711.014099 14 14 14 0.129571 -0.490829 0.861567
-205.633057 22.359558 710.881531 14 14 14 0.148705 -0.485992 0.861219
-218.946106 22.756807 713.176819 14 14 14 0.142959 -0.468936 0.871586
-217.107574 23.051834 713.096985 14 14 14 0.136629 -0.456343 0.879252
-214.780457 23.409311 712.884827 14 14 14 0.148861 -0.463113 0.873709
-212.430832 23.759253 712.668640 14 14 14 0.149995 -0.446726 0.882008
-209.976089 23.771399 712.283569 14 14 14 0.149841 -0.418901 0.895583
-207.480042 23.736214 711.803406 15 15 15 0.155417 -0.402010 0.902349
-205.006897 23.784235 711.412231 15 15 15 0.147926 -0.405476 0.902057
-202.615234 24.090445 711.187927 15 15 15 0.132905 -0.401180 0.906306
-200.188751 24.544333 711.019592 15 15 15 0.128217 -0.398517 0.908154
-198.025696 24.969942 710.914062 15 15 15 0.146522 -0.389526 0.909286
-211.847137 25.302925 713.211853 15 15 15 0.161964 -0.366295 0.916294
-209.806107 25.678600 713.047119 15 15 15 0.149349 -0.368437 0.917578
-207.370789 26.241560 712.847595 15 15 15 0.158461 -0.365317 0.917297
-204.962723 26.290327 712.499451 15 15 15 0.150087 -0.348657 0.925155
-202.470795 26.278307 712.057495 15 15 15 0.150411 -0.336019 0.929768
-199.998764 26.348785 711.728760 15 15 15 0.142627 -0.322631 0.935717
-197.440186 26.424948 711.327209 16 16 16 0.149992 -0.311934 0.938190
-195.041580 26.741007 711.059937 16 16 16 0.142089 -0.307203 0.940977
-192.778595 27.233292 710.928711 16 16 16 -0.141684 0.302286 -0.942628
-206.434631 27.952139 713.262634 16 16 16 0.166961 -0.289454 0.942518
-204.657349 28.425699 713.110535 16 16 16 -0.144258 0.250977 -0.957183
-202.442429 28.898592 712.895752 16 16 16 -0.146773 0.249513 -0.957184
-199.936081 28.872393 712.497986 16 16 16 0.139529 -0.250635 0.957974
-197.476807 28.837551 712.120422 16 16 16 0.156392 -0.258119 0.953371
-195.010193 28.820194 711.698975 16 16 16 0.151909 -0.249837 0.956298
-192.534195 28.767370 711.296509 16 16 16 -0.157908 0.259288 -0.952804
-190.279953 29.231113 711.045959 16 16 16 0.152911 -0.232514 0.960497
-188.437149 29.668665 710.850464 15 15 15 0.149785 -0.236465 0.960025
-201.899368 30.816742 713.199463 16 16 16 -0.144858 0.212904 -0.966276
-199.933578 31.214979 713.023010 16 16 16 0.157081 -0.169059 0.973008
-197.490280 31.264715 712.625061 17 17 17 0.147044 -0.150806 0.977566
-194.956360 31.242537 712.247620 16 16 16 0.146899 -0.167604 0.974849
-192.432861 31.235483 711.833740 17 17 17 0.158155 -0.172458 0.972237
-189.898621 31.312519 711.458557 17 17 17 -0.150494 0.164866 -0.974767
-187.496948 31.443993 711.126038 16 16 16 0.147467 -0.158052 0.976357
-185.447464 32.006100 710.895630 17 17 17 0.159088 -0.150453 0.975733
-199.556976 33.494583 713.203674 16 16 16 -0.142428 0.055786 -0.988232
-197.584518 33.834839 712.942749 17 17 17 0.158653 -0.060264 0.985493
-195.043549 33.809906 712.543762 17 17 17 0.144922 -0.071838 0.986832
-192.509537 33.785633 712.157288 17 17 17 0.148775 -0.074106 0.986090
-190.005768 33.870358 711.766479 17 17 17 0.160688 -0.056725 0.985374
-187.449554 33.886631 711.373291 17 17 17 0.146507 -0.061853 0.987274
-185.027878 33.903835 711.052124 17 17 17 0.141451 -0.048287 0.988767
-183.471939 34.482098 710.857666 17 17 17 -0.147590 0.015556 -0.988926
-199.587234 36.596878 713.208984 17 17 17 0.134409 0.045145 0.989897
-197.594299 36.391834 712.954224 17 17 17 0.145985 0.042848 0.988358
-195.064224 36.367165 712.595398 17 17 17 0.139195 0.043152 0.989324
-192.528641 36.340878 712.203979 17 17 17 0.149463 0.042705 0.987845
-189.990173 36.313450 711.788330 16 16 16 0.148948 0.040560 0.988013
-187.463699 36.287640 711.404114 17 17 17 0.151363 0.032848 0.987932
-184.977264 36.267307 711.029053 17 17 17 -0.114782 -0.027682 -0.993005
-183.340897 36.121101 710.853149 17 17 17 -0.142113 0.003145 -0.989846
-201.974197 39.293915 713.237854 17 17 17 0.137779 0.155958 0.978108
-199.950821 38.882633 713.103638 17 17 17 -0.139863 -0.122614 -0.982550
-197.536575 38.785564 712.722290 17 17 17 0.143353 0.119818 0.982392
-195.006561 38.759201 712.360962 17 17 17 0.150798 0.118942 0.981383
-192.461914 38.752392 711.976196 17 17 17 0.155208 0.118392 0.980762
-189.945404 38.854370 711.595154 17 17 17 0.149489 0.113239 0.982258
-187.419891 38.826942 711.212341 17 17 17 -0.150259 -0.127057 -0.980448
-185.207474 38.452126 710.939514 17 17 17 0.155186 0.063129 0.985866
-204.614990 42.034092 713.230042 17 17 17 -0.141947 -0.229928 -0.962800
-202.412308 41.330791 713.032227 17 17 17 0.144687 0.189402 0.971181
-199.970154 41.347645 712.701355 17 17 17 0.134459 0.187669 0.972986
-197.424210 41.316689 712.290283 17 17 17 0.150077 0.184898 0.971231
-194.916779 41.273132 711.951904 17 17 17 0.145718 0.191128 0.970689
-192.425446 41.268326 711.547302 17 17 17 0.141391 0.180818 0.973300
-189.943954 41.371586 711.211731 17 17 17 -0.138202 -0.191233 -0.971767
-187.713898 40.947948 710.954102 17 17 17 0.148227 0.197239 0.969085
-211.262253 45.030041 713.287659 17 17 17 0.132043 0.360416 0.923399
-209.682617 44.753796 713.165649 16 16 16 0.142756 0.342574 0.928582
-207.326294 44.203552 713.012878 16 16 16 -0.139827 -0.331348 -0.933090
-204.956985 43.767128 712.803223 16 16 16 -0.130658 -0.282202 -0.950416
-202.498367 43.795834 712.459717 16 16 16 0.131515 0.289242 0.948179
-199.957886 43.867191 712.088806 17 17 17 0.138165 0.283417 0.948992
-197.509415 43.877914 711.729919 17 17 17 0.141800 0.257951 0.955696
-195.055145 43.808857 711.376099 17 17 17 -0.145171 -0.280334 -0.948861
-192.615616 43.513023 711.111877 17 17 17 0.138148 0.228502 0.963691
-190.641083 43.099430 710.940918 17 17 17 -0.129372 -0.230560 -0.964420
-217.156570 47.248920 713.125122 15 15 15 0.128745 0.460552 0.878246
-214.873734 46.919224 712.990295 15 15 15 0.133515 0.451548 0.882201
-212.429062 46.464039 712.830017 15 15 15 0.133331 0.440374 0.887859
-209.966690 46.350906 712.552856 15 15 15 0.119984 0.417011 0.900947
-207.476624 46.289795 712.248840 16 16 16 0.124077 0.393319 0.910991
-204.966324 46.276417 711.907898 16 16 16 0.133272 0.370626 0.919171
-202.426285 46.331360 711.516846 16 16 16 -0.126692 -0.403521 -0.906157
-199.991287 46.168205 711.277466 16 16 16 0.127340 0.361746 0.923539
-197.575363 45.780716 711.088135 17 17 17 0.119142 0.357761 0.926182
-195.338760 45.414799 710.941223 16 16 16 -0.129765 -0.341055 -0.931043
-231.735580 49.925480 713.299011 12 12 12 0.099025 0.607613 0.788036
-229.590973 49.833057 713.165527 11 11 11 0.100243 0.600155 0.793578
-227.390732 49.647682 712.998230 13 13 13 0.116319 0.581835 0.804946
-224.910553 49.367344 712.894348 14 14 14 0.108772 0.559332 0.821777
-222.395676 49.095543 712.728088 14 14 14 0.114747 0.561995 0.819143
-219.937759 48.797844 712.616516 14 14 14 0.105917 0.520577 0.847220
-217.461441 48.859188 712.264099 14 14 14 0.113220 0.526997 0.842292
-214.991898 48.878395 711.898682 15 15 15 0.116562 0.504441 0.855542
-212.520752 48.794239 711.613770 15 15 15 0.110914 0.483646 0.868208
-210.051575 48.613617 711.436646 15 15 15 0.103292 0.481446 0.870368
-207.557922 48.286335 711.281921 16 16 16 0.110619 0.479469 0.870559
-205.026932 47.997066 711.104675 16 16 16 0.127520 0.468355 0.874290
-203.307114 47.714424 711.004150 15 15 15 -0.127784 -0.463397 -0.876889
-244.747131 52.236935 713.048889 8 8 8 0.097575 0.432619 0.896281
-242.394852 51.990467 712.918518 7 7 7 0.131837 0.397404 0.908124
-239.923569 51.853668 712.744568 9 9 9 0.066855 0.474240 0.877853
-237.382034 51.698078 712.565857 11 11 11 0.070065 0.497214 0.864795
-234.944931 51.621185 712.387268 11 11 11 0.083460 0.501997 0.860833
-232.444061 51.394684 712.214966 12 12 12 -0.104233 -0.507033 -0.855600
-229.984726 51.316422 711.980164 13 13 13 0.091663 0.651759 0.752866
-227.522369 51.116287 711.852234 13 13 13 0.086666 0.659376 0.746801
-225.009247 50.993294 711.685547 13 13 13 0.086768 0.643268 0.760709
-222.527618 50.785702 711.487244 12 12 12 0.099036 0.625043 0.774282
-220.024902 50.617008 711.319519 13 13 13 0.084698 0.615297 0.783732
-217.643784 50.499790 711.155701 14 14 14 0.082297 0.611409 0.787023
-215.121521 50.365719 710.963928 14 14 14 0.086788 0.605084 0.791417
-213.448822 50.292461 710.861206 14 14 14 0.113414 0.603247 0.789449
-244.580872 53.758823 712.929321 9 9 9 -0.282359 -0.175639 -0.943093
-242.377838 53.789993 712.620178 10 10 10 0.148288 -0.015878 0.988817
-240.001282 53.798458 712.254761 9 9 9 0.163423 0.032091 0.986034
-237.575531 53.817024 711.865417 8 8 8 0.165170 0.091131 0.982046
-234.969299 53.875587 711.468872 9 9 9 0.163884 0.147325 0.975417
-232.429718 53.855846 711.112915 9 9 9 -0.180244 -0.174140 -0.968084
-230.545502 54.232143 710.906738 9 9 9 -0.117592 0.041459 -0.992196
-244.654709 55.814423 713.154907 9 9 9 0.133977 -0.144213 0.980435
-242.438049 56.267040 712.926270 9 9 9 0.151389 -0.133954 0.979356
-239.959137 56.418697 712.561157 8 8 8 0.154418 -0.117475 0.980997
-237.501770 56.349205 712.171265 8 8 8 0.150523 -0.135604 0.979262
-235.048401 56.279930 711.783630 8 8 8 0.153051 -0.131812 0.979388
-232.512207 56.268005 711.387695 9 9 9 0.141820 -0.118046 0.982829
-230.121811 56.366707 711.065918 8 8 8 0.138524 -0.131626 0.981573
-228.262497 56.936142 710.961548 7 7 7 0.151370 -0.154163 0.976382
-242.081772 58.635117 713.175293 7 7 7 0.168654 -0.119356 0.978422
-240.017548 58.809307 712.843689 7 7 7 0.143809 -0.153227 0.977671
-237.480865 58.790462 712.536316 7 7 7 0.138232 -0.148560 0.979195
-234.956177 58.779335 712.134155 7 7 7 0.155991 -0.146036 0.976903
-232.479218 58.722851 711.722473 7 7 7 0.147577 -0.141919 0.978815
-230.032547 58.776207 711.373718 8 8 8 0.131067 -0.131992 0.982547
-227.647644 58.945801 711.070984 8 8 8 0.130335 -0.129624 0.982960
-225.765076 59.517082 710.975220 7 7 7 0.164716 -0.170175 0.971550
-239.566971 60.987503 713.156921 9 9 9 0.157710 -0.160855 0.974296
-237.518768 61.222874 712.903076 9 9 9 -0.140638 0.141672 -0.979873
-234.968277 61.249844 712.508545 9 9 9 0.152706 -0.149327 0.976925
-232.486740 61.315678 712.132751 9 9 9 0.148966 -0.152320 0.977040
-229.907257 61.405811 711.751343 9 9 9 0.145310 -0.154448 0.977257
-227.399963 61.385216 711.375061 9 9 9 0.127131 -0.143058 0.981515
-225.144211 61.381649 711.097046 9 9 9 0.146850 -0.135366 0.979853
-223.211884 61.903515 710.870911 12 12 12 0.155171 -0.177053 0.971892
-238.963181 62.630447 713.262695 11 11 11 0.156990 -0.150106 0.976126
-237.229721 63.258801 713.174011 10 10 10 0.147467 -0.163603 0.975442
-234.926849 63.894642 712.909485 10 10 10 0.155886 -0.164924 0.973910
-232.434174 63.907108 712.514099 11 11 11 0.151233 -0.164521 0.974711
-230.014236 63.822762 712.156189 11 11 11 0.142351 -0.160741 0.976677
-227.492477 63.808804 711.795532 12 12 12 0.144590 -0.165174 0.975608
-224.946411 63.779594 711.403320 12 12 12 0.141641 -0.155503 0.977628
-222.444641 63.745850 711.061584 13 13 13 0.136102 -0.162428 0.977289
-220.407394 64.497253 710.896118 12 12 12 0.168367 -0.158436 0.972909
-234.493698 65.783295 713.204102 11 11 11 -0.151192 0.182529 -0.971506
-232.439606 66.331017 712.953979 12 12 12 0.156244 -0.182818 0.970652
-229.907837 66.313622 712.577881 12 12 12 0.145170 -0.169499 0.974780
-227.444336 66.272156 712.214783 13 13 13 0.142306 -0.168817 0.975321
-225.025177 66.184280 711.837769 13 13 13 0.143018 -0.166173 0.975670
-222.519440 66.302689 711.500427 13 13 13 0.142862 -0.159558 0.976797
-220.052963 66.409126 711.141846 12 12 12 0.160472 -0.168613 0.972532
-217.963181 67.043457 710.930786 13 13 13 0.155839 -0.182137 0.970845
-231.946182 68.052238 713.203491 13 13 13 0.167892 -0.184196 0.968444
-229.976471 68.688332 712.982544 12 12 12 0.149105 -0.177605 0.972741
-227.478424 68.709099 712.636414 12 12 12 0.147769 -0.169775 0.974341
-224.917679 68.811790 712.258057 13 13 13 0.143940 -0.166432 0.975491
-222.464584 68.935699 711.916931 13 13 13 0.148267 -0.162567 0.975494
-220.031998 68.849472 711.547058 13 13 13 0.147232 -0.157135 0.976540
-217.570953 68.818604 711.162781 13 13 13 0.152850 -0.161794 0.974915
-215.607910 69.305412 710.951721 12 12 12 0.197192 -0.170463 0.965431
-229.326843 70.436165 713.243408 12 12 12 0.159013 -0.197695 0.967281
-227.404587 71.214867 713.050171 12 12 12 0.168440 -0.161615 0.972372
-225.055405 71.369423 712.709106 13 13 13 0.137479 -0.156788 0.978017
-222.525177 71.373894 712.369324 10 10 10 0.151195 -0.163873 0.974826
-219.944702 71.316353 711.913208 13 13 13 0.154696 -0.161084 0.974742
-217.407349 71.282936 711.529419 13 13 13 0.145048 -0.159795 0.976436
-214.960114 71.275253 711.162170 12 12 12 0.168939 -0.179155 0.969207
-212.932480 71.936958 710.925293 12 12 12 0.129361 -0.199373 0.971348
-226.658783 73.288918 713.212524 13 13 13 0.170455 -0.152748 0.973454
-224.842804 73.804192 713.072510 13 13 13 0.131588 -0.152076 0.979570
-222.460938 73.855873 712.748352 12 12 12 0.142667 -0.151717 0.978073
-220.055771 73.742432 712.345886 12 12 12 0.147882 -0.168323 0.974576
-217.535278 73.720253 711.964783 12 12 12 0.152341 -0.170269 0.973551
-214.947739 73.781227 711.549255 11 11 11 0.150106 -0.164665 0.974861
-212.446228 73.921501 711.233643 11 11 11 -0.129119 0.179925 -0.975169
-210.314133 74.176437 711.008179 11 11 11 -0.156585 0.173420 -0.972320
-224.298508 75.621849 713.254761 12 12 12 0.138409 -0.171164 0.975472
-222.329819 76.140961 713.097717 11 11 11 0.137412 -0.155592 0.978217
-219.947556 76.240852 712.776306 11 11 11 0.138464 -0.162868 0.976884
-217.435745 76.240768 712.397583 11 11 11 0.147697 -0.179007 0.972698
-214.988541 76.389786 712.012695 10 10 10 0.148042 -0.180236 0.972419
-212.521362 76.337006 711.683044 9 9 9 0.136341 -0.167415 0.976413
-210.043640 76.323494 711.293640 8 8 8 0.141386 -0.177494 0.973913
-207.717850 76.470245 711.029114 6 6 6 -0.142031 0.183973 -0.972616
-206.041992 77.082642 710.843506 6 6 6 0.172949 -0.158165 0.972148
-221.653244 77.987183 713.260254 11 11 11 0.162836 -0.199654 0.966242
-219.850677 78.450775 713.125732 10 10 10 0.106210 -0.207586 0.972434
-217.536575 78.789772 712.935974 6 6 6 0.154256 -0.196904 0.968212
-214.987457 78.890778 712.517944 6 6 6 0.159969 -0.179733 0.970622
-212.421844 78.830620 712.088989 7 7 7 0.142574 -0.171952 0.974733
-209.879501 78.777809 711.725952 7 7 7 0.135097 -0.177963 0.974719
-207.410599 78.745201 711.359802 6 6 6 -0.146295 0.173697 -0.973872
-205.015182 79.064491 711.059814 7 7 7 0.150773 -0.175591 0.972849
-203.074112 79.672623 710.876099 7 7 7 0.178884 -0.203721 0.962548
-216.929825 80.833870 713.169495 6 6 6 0.185985 -0.131399 0.973727
-214.976288 81.356972 712.943604 6 6 6 -0.145902 0.142993 -0.978911
-212.549957 81.275894 712.532593 7 7 7 0.131899 -0.179657 0.974847
-210.035278 81.243103 712.210876 7 7 7 0.134342 -0.176079 0.975166
-207.485703 81.207169 711.825317 7 7 7 0.155039 -0.171714 0.972871
-204.963821 81.386078 711.407776 7 7 7 0.147719 -0.167858 0.974681
-202.526535 81.488434 711.119568 8 8 8 0.140795 -0.182554 0.973063
-200.677246 81.742943 710.908020 8 8 8 0.172125 -0.190848 0.966411
-216.407196 82.856796 713.278625 6 6 6 0.165586 -0.177895 0.970018
-214.601593 83.209045 713.143433 7 7 7 0.107496 -0.202416 0.973382
-212.384262 83.734779 713.024231 7 7 7 0.140654 -0.185187 0.972585
-209.938705 83.728333 712.630737 7 7 7 0.141427 -0.165062 0.976091
-207.496384 83.782082 712.282288 7 7 7 0.149923 -0.171319 0.973742
-205.034393 83.880981 711.895996 8 8 8 0.144621 -0.180648 0.972857
-202.535645 83.819862 711.526794 8 8 8 0.139723 -0.172627 0.975027
-200.103027 83.934982 711.190369 8 8 8 0.156500 -0.190957 0.969042
-198.164368 84.216461 710.970093 7 7 7 0.149969 -0.202245 0.967784
-212.192474 85.503975 713.211792 7 7 7 0.167861 -0.163817 0.972104
-209.898041 86.184441 713.058411 7 7 7 0.133087 -0.160918 0.977953
-207.506805 86.377762 712.744873 7 7 7 0.136283 -0.171980 0.975628
-204.930084 86.357597 712.351318 7 7 7 0.147062 -0.187390 0.971215
-202.403549 86.314354 711.965454 8 8 8 0.143700 -0.179270 0.973248
-199.923203 86.244057 711.590759 7 7 7 0.153864 -0.167170 0.973848
-197.444748 86.227867 711.149048 8 8 8 -0.154292 0.186371 -0.970288
-195.298630 86.695030 710.958374 7 7 7 0.144392 -0.193490 0.970419
-209.176407 88.023346 713.205627 7 7 7 0.138206 -0.204178 0.969129
-207.167953 88.487419 713.111206 7 7 7 0.133481 -0.171025 0.976183
-205.011292 88.789940 712.834229 7 7 7 -0.141862 0.170949 -0.975014
-202.534409 88.767609 712.438293 7 7 7 0.153168 -0.184642 0.970797
-199.964859 88.721588 712.011108 7 7 7 0.141935 -0.180426 0.973294
-197.488434 88.837456 711.721313 7 7 7 0.134771 -0.193227 0.971854
-194.940155 88.892632 711.349915 7 7 7 0.156024 -0.189318 0.969441
-192.612457 89.137367 710.998596 7 7 7 -0.145615 0.197771 -0.969372
-190.640137 89.736336 710.891479 7 7 7 0.153521 -0.178723 0.971848
-206.433762 90.551872 713.261719 8 8 8 0.154815 -0.183240 0.970802
-204.569138 90.857849 713.144897 7 7 7 0.098947 -0.162167 0.981790
-202.345398 91.228363 712.903076 8 8 8 -0.145084 0.137855 -0.979769
-199.919342 91.269516 712.526611 7 7 7 0.144344 -0.190706 0.970977
-197.519577 91.400360 712.185974 7 7 7 0.149019 -0.183485 0.971662
-195.020935 91.346672 711.797729 7 7 7 0.146852 -0.184590 0.971782
-192.531586 91.281502 711.431580 7 7 7 0.146307 -0.180045 0.972717
-190.134628 91.487114 711.049316 6 6 6 0.160084 -0.182885 0.970013
-188.132294 91.954430 710.869446 6 6 6 0.159455 -0.207459 0.965160
-203.845352 92.646591 713.223755 7 7 7 0.160894 -0.168842 0.972422
-202.145416 92.889130 713.130920 7 7 7 -0.099553 0.174160 -0.979672
-199.909271 93.750397 713.014282 7 7 7 0.149914 -0.187199 0.970815
-197.456146 93.896042 712.663696 7 7 7 0.143691 -0.182356 0.972676
-194.913879 93.829208 712.262939 6 6 6 0.149972 -0.191730 0.969921
-192.410995 93.792542 711.867310 6 6 6 0.154167 -0.186619 0.970260
-189.942322 93.743568 711.473938 6 6 6 0.142512 -0.190382 0.971311
-187.592285 93.919357 711.179688 7 7 7 0.138458 -0.195553 0.970870
-185.158203 94.387856 710.970093 6 6 6 0.118609 -0.201685 0.972242
-183.482132 94.938065 710.878906 5 5 5 0.176588 -0.198751 0.964010
-199.240662 95.824112 713.242737 6 6 6 0.160986 -0.196335 0.967231
-197.406555 95.999908 713.065674 6 6 6 0.137398 -0.178961 0.974215
-195.036316 96.307396 712.784424 6 6 6 -0.144098 0.174178 -0.974114
-192.526245 96.242233 712.369324 6 6 6 0.150176 -0.183650 0.971452
-189.989044 96.249046 711.966248 6 6 6 0.147462 -0.184375 0.971731
-187.472229 96.414642 711.623352 6 6 6 0.138469 -0.180080 0.973857
-184.944809 96.347847 711.232910 6 6 6 0.130323 -0.167781 0.977172
-182.714920 96.731934 711.018311 6 6 6 0.120884 -0.169838 0.978030
-180.166397 97.326569 710.881714 5 5 5 0.173839 -0.220686 0.959728
-196.349274 98.194199 713.247559 7 7 7 0.168490 -0.169381 0.971041
-194.720886 98.647690 713.124268 6 6 6 0.106374 -0.171706 0.979388
-192.433899 98.676437 712.823853 6 6 6 0.156154 -0.206702 0.965863
-189.988892 98.849701 712.461792 7 7 7 0.147113 -0.196270 0.969451
-187.522537 98.885956 712.117859 7 7 7 0.139941 -0.202853 0.969158
-185.014557 98.826431 711.739136 7 7 7 0.146601 -0.187218 0.971317
-182.517334 98.722267 711.298157 7 7 7 0.132777 -0.169425 0.976558
-180.232468 98.971649 711.025574 7 7 7 0.141017 -0.170221 0.975263
-178.501755 99.525833 710.897827 7 7 7 0.156079 -0.212063 0.964712
-194.600525 100.141922 713.207886 7 7 7 0.114769 -0.200428 0.972963
-192.318588 100.629913 713.195007 6 6 6 0.076387 -0.175079 0.981587
-189.898209 101.353783 712.988525 7 7 7 0.147162 -0.192320 0.970235
-187.470306 101.381699 712.660889 7 7 7 0.142140 -0.185418 0.972325
-184.924576 101.303581 712.213318 7 7 7 0.155652 -0.199888 0.967376
-182.412735 101.249733 711.817139 7 7 7 0.147418 -0.200764 0.968484
-179.954697 101.267937 711.437439 8 8 8 -0.146201 0.191776 -0.970488
-177.525681 101.486153 711.117859 7 7 7 0.150467 -0.203506 0.967443
-175.416855 102.278786 710.984253 5 5 5 0.181953 -0.240971 0.953324
-189.151276 103.208275 713.150757 6 6 6 0.164716 -0.206955 0.964385
-187.327072 103.675041 713.043457 7 7 7 0.130519 -0.178043 0.975328
-185.026077 103.784294 712.762146 7 7 7 0.134433 -0.198484 0.970841
-182.528412 103.704330 712.344543 7 7 7 0.158995 -0.198157 0.967189
-180.007690 103.801041 711.957581 7 7 7 0.147981 -0.198955 0.968772
-177.511749 103.887245 711.613708 7 7 7 0.140261 -0.194616 0.970799
-175.028305 103.853790 711.247559 5 5 5 -0.158261 0.208673 -0.965096
-173.016785 104.001282 710.939636 6 6 6 0.197198 -0.210327 0.957536
-186.417511 105.376831 713.190308 8 8 8 0.142527 -0.205794 0.968161
-184.750366 105.840446 713.163757 7 7 7 0.142092 -0.200341 0.969368
-182.452469 106.246521 712.831970 8 8 8 0.156864 -0.198377 0.967491
-179.974823 106.322792 712.480835 7 7 7 0.149111 -0.204767 0.967386
-177.454407 106.377876 712.089905 8 8 8 0.143820 -0.194027 0.970396
-175.042526 106.279877 711.740662 6 6 6 0.155185 -0.192709 0.968907
-172.573364 106.235794 711.278381 6 6 6 0.170403 -0.213023 0.962073
-170.270737 106.580856 711.018188 7 7 7 0.149873 -0.214693 0.965114
-168.111206 107.478104 710.812561 7 7 7 0.173014 -0.224688 0.958948
-182.143250 108.090805 713.186035 6 6 6 -0.146516 0.212354 -0.966146
-179.965668 108.794258 713.007874 6 6 6 0.158609 -0.196839 0.967522
-177.484558 108.859047 712.603455 6 6 6 0.147895 -0.197348 0.969113
-174.963959 108.785637 712.219910 6 6 6 0.147351 -0.196427 0.969383
-172.440781 108.708687 711.811707 6 6 6 0.159777 -0.200402 0.966597
-169.917923 108.892395 711.383423 6 6 6 -0.156917 0.207019 -0.965671
-167.482819 109.045364 711.099609 7 7 7 0.127352 -0.223416 0.966368
-165.465836 109.478554 710.943542 6 6 6 0.172852 -0.222587 0.959467
-179.353928 110.626701 713.227173 6 6 6 0.149899 -0.217794 0.964415
-177.335541 111.134239 713.063293 6 6 6 0.101665 -0.221133 0.969930
-175.018906 111.242775 712.738342 5 5 5 -0.166438 0.220768 -0.961020
-172.527298 111.217613 712.329285 6 6 6 0.150711 -0.203508 0.967404
-170.021393 111.420357 711.998779 6 6 6 0.145620 -0.215809 0.965516
-167.530029 111.330978 711.602905 6 6 6 0.142276 -0.207450 0.967844
-165.104080 111.348320 711.232056 6 6 6 0.165788 -0.212058 0.963092
-162.978928 111.705528 710.954895 6 6 6 0.157152 -0.233179 0.959651
-177.074844 112.739899 713.302917 6 6 6 0.111562 -0.194652 0.974507
-174.640915 113.443344 713.145325 6 6 6 0.194606 -0.219087 0.956101
-172.433762 113.711571 712.860779 6 6 6 0.156770 -0.211747 0.964669
-169.921494 113.894920 712.502869 6 6 6 0.141378 -0.210031 0.967419
-167.424759 113.840660 712.144714 6 6 6 0.139254 -0.208729 0.968008
-164.883377 113.774048 711.719116 6 6 6 0.155940 -0.218783 0.963233
-162.422791 113.760834 711.317383 5 5 5 0.150291 -0.222309 0.963323
-160.104568 114.068169 711.048828 7 7 7 0.130209 -0.197024 0.971714
-157.745178 114.822845 710.920532 9 9 9 0.157589 -0.211512 0.964587
-172.118164 115.640472 713.205383 5 5 5 0.166772 -0.258530 0.951498
-169.961517 116.241898 713.048523 5 5 5 0.163969 -0.209969 0.963860
-167.538376 116.353867 712.653137 5 5 5 0.130846 -0.199301 0.971164
-165.043335 116.288689 712.345764 6 6 6 0.141616 -0.216448 0.965968
-162.516510 116.198868 711.886108 5 5 5 0.172392 -0.209238 0.962549
-159.991470 116.407829 711.409668 7 7 7 0.139790 -0.197333 0.970319
-157.534164 116.377197 711.161926 8 8 8 0.122466 -0.213422 0.969254
-155.600800 116.830994 710.973877 7 7 7 -0.145752 0.234674 -0.961085
-169.446335 117.915932 713.205200 5 5 5 0.157739 -0.219553 0.962764
-167.245163 118.388504 713.099060 6 6 6 0.134562 -0.251995 0.958328
-164.926910 118.797829 712.847229 6 6 6 0.155694 -0.208823 0.965480
-162.416016 118.725853 712.451782 5 5 5 0.156863 -0.215196 0.963890
-159.901367 118.935677 712.042664 6 6 6 0.155974 -0.231657 0.960212
-157.445496 118.859818 711.704529 7 7 7 0.138698 -0.207751 0.968299
-154.960800 118.771675 711.306030 7 7 7 -0.153148 0.213608 -0.964840
-152.611237 119.166191 711.045044 6 6 6 0.156460 -0.224022 0.961943
-150.519104 119.902946 710.893066 6 6 6 0.173307 -0.212136 0.961750
-164.614395 120.547844 713.172607 5 5 5 0.135772 -0.240720 0.961051
-162.469482 121.059380 712.982544 5 5 5 0.156553 -0.215751 0.963817
-159.966370 121.405624 712.643066 5 5 5 0.153347 -0.211106 0.965359
-157.479477 121.351990 712.214783 6 6 6 0.151682 -0.201864 0.967597
-154.979233 121.274025 711.843689 6 6 6 0.143350 -0.208883 0.967377
-152.504761 121.224876 711.440613 6 6 6 0.146224 -0.204395 0.967905
-150.080643 121.508423 711.142700 5 5 5 0.148881 -0.223519 0.963262
-147.745682 122.011383 710.938660 5 5 5 0.139461 -0.230757 0.962965
-162.262817 122.842537 713.255554 5 5 5 0.161628 -0.218008 0.962470
-159.771912 123.568359 713.066284 5 5 5 0.157081 -0.234733 0.959284
-157.459351 123.857704 712.740356 5 5 5 0.149231 -0.218773 0.964297
-155.002304 123.784241 712.402771 6 6 6 0.134613 -0.209412 0.968517
-152.474991 123.699738 711.989075 5 5 5 0.146174 -0.218926 0.964730
-150.022507 123.799057 711.647034 5 5 5 0.144711 -0.222657 0.964097
-147.506790 123.849823 711.245972 5 5 5 0.146101 -0.222419 0.963942
-145.422256 124.048569 711.014832 5 5 5 0.157161 -0.217427 0.963341
-143.327896 124.655151 710.872803 5 5 5 0.101720 -0.202912 0.973899
-156.872681 125.740349 713.035889 6 6 6 -0.131046 0.253307 -0.958469
-154.863342 126.076248 712.891541 5 5 5 0.142930 -0.252325 0.957028
-152.435089 126.055939 712.530701 5 5 5 0.141055 -0.226366 0.963775
-149.955170 126.212868 712.236206 5 5 5 0.147607 -0.233432 0.961104
-147.433456 126.223602 711.820190 5 5 5 0.150646 -0.231714 0.961049
-144.973892 126.290009 711.449707 5 5 5 0.153753 -0.231903 0.960511
-142.646637 126.293015 711.102234 5 5 5 0.070212 -0.210169 0.975141
-140.255066 127.115211 710.941772 5 5 5 0.127079 -0.257893 0.957780
-138.666016 127.483070 710.833191 4 4 4 0.135455 -0.278761 0.950760
-141.912399 127.575851 711.246948 5 5 5 0.140243 -0.251146 0.957736
-141.158569 127.571404 711.246948 5 5 5 0.140243 -0.251146 0.957736
-161.714493 -163.193192 715.655701 5 5 5 0.150550 0.222569 0.963223
-159.868286 -163.326859 715.418396 6 6 6 0.130612 0.204943 0.970020
-157.381912 -163.286835 715.170227 6 6 6 0.132861 0.209853 0.968664
-154.819824 -163.372269 714.857483 6 6 6 -0.129603 -0.187514 -0.973674
-152.389771 -163.427826 714.542175 7 7 7 -0.139001 -0.193479 -0.971208
-149.889587 -163.329987 714.135071 5 5 5 0.186053 0.108447 0.976536
-147.354874 -163.480087 713.815002 7 7 7 0.089017 0.111843 0.989731
-145.062271 -163.583466 713.694153 8 8 8 0.112402 0.216264 0.969843
-142.526520 -164.032532 713.436462 7 7 7 -0.139433 -0.333745 -0.932294
-141.092377 -164.431717 713.338684 7 7 7 0.106618 0.244669 0.963727
-164.782272 -160.675522 715.709290 27 27 27 0.126926 0.153191 0.980011
-162.497284 -161.211365 715.502563 23 23 23 0.135991 0.170358 0.975953
-160.070007 -161.160095 715.178589 22 22 22 0.136243 0.136358 0.981246
-157.564590 -161.122635 714.800659 22 22 22 0.135813 0.149927 0.979325
-155.003036 -161.247391 714.443420 21 21 21 0.132473 0.168196 0.976812
-152.576172 -161.183731 714.139648 20 20 20 0.139753 0.182730 0.973180
-150.078598 -161.089340 713.716431 19 19 19 0.129522 0.180729 0.974967
-147.622116 -161.427658 713.506165 17 17 17 0.029601 0.070264 0.997089
-145.471161 -162.042267 713.369629 8 8 8 0.165128 0.218807 0.961694
-168.892593 -157.578903 715.806213 28 28 28 0.136290 0.174377 0.975201
-167.182602 -158.219421 715.690002 32 32 32 0.133840 0.180236 0.974475
-165.020554 -158.675537 715.469971 34 34 34 0.132870 0.150179 0.979689
-162.511078 -158.757141 715.140381 34 34 34 0.130177 0.156352 0.979085
-159.999466 -158.661362 714.782532 34 34 34 0.134481 0.166026 0.976908
-157.511688 -158.639984 714.427734 35 35 35 0.135387 0.162915 0.977307
-154.993530 -158.779709 714.094116 35 35 35 0.151157 0.161795 0.975179
-152.508911 -158.706436 713.681152 30 30 30 -0.157984 -0.178965 -0.971088
-150.448135 -159.256973 713.440308 25 25 25 0.137117 0.178016 0.974427
-148.325958 -159.931656 713.334106 32 32 32 0.102177 0.180801 0.978198
-171.532867 -155.264984 715.707520 32 32 32 0.147929 0.198519 0.968869
-169.659409 -155.925903 715.605164 31 31 31 0.134169 0.183724 0.973778
-167.397385 -156.093323 715.310791 32 32 32 0.126900 0.183701 0.974757
-164.863388 -156.251022 715.043213 34 34 34 0.129040 0.181890 0.974815
-162.407227 -156.243546 714.680481 35 35 35 0.139382 0.180112 0.973721
-159.914932 -156.129196 714.307617 34 34 34 0.137216 0.179017 0.974230
-157.409378 -156.207108 713.975769 34 34 34 0.141371 0.182627 0.972965
-154.954834 -156.300339 713.632812 33 33 33 -0.152659 -0.189004 -0.970037
-153.052414 -156.797241 713.406311 33 33 33 0.166388 0.195465 0.966493
-174.435471 -152.985229 715.730774 32 32 32 0.163725 0.197534 0.966527
-172.398087 -153.620728 715.533630 33 33 33 0.141767 0.188638 0.971760
-170.026505 -153.666061 715.241150 36 36 36 0.130176 0.182310 0.974586
-167.585663 -153.594604 714.874817 36 36 36 0.136943 0.180146 0.974060
-165.043884 -153.792023 714.566040 37 37 37 0.128667 0.187170 0.973865
-162.554001 -153.682724 714.210938 39 39 39 0.129399 0.181689 0.974805
-160.066360 -153.610306 713.869812 39 39 39 0.138040 0.181781 0.973602
-157.638809 -153.842133 713.560913 37 37 37 0.148912 0.192370 0.969958
-155.768707 -154.434769 713.371826 34 34 34 0.155209 0.195504 0.968343
-177.217651 -150.524384 715.670349 36 36 36 0.136361 0.211614 0.967794
-174.907623 -151.188339 715.448853 34 34 34 0.154454 0.205145 0.966468
-172.482803 -151.220322 715.084839 35 35 35 0.139260 0.189275 0.971999
-169.966614 -151.130676 714.738403 37 37 37 0.131435 0.189900 0.972966
-167.460342 -151.198105 714.416870 39 39 39 0.133216 0.191438 0.972422
-164.953979 -151.262787 714.082336 41 41 41 0.129404 0.188705 0.973471
-162.447830 -151.174377 713.740173 41 41 41 -0.129261 -0.189801 -0.973276
-160.150238 -151.413483 713.476135 41 41 41 -0.141494 -0.179793 -0.973475
