ply
format ascii 1.0
element vertex 1441
property float x
property float y
property float z
end_header
227.975739 -120.820358 835.260559
230.441452 -120.707901 835.164673
232.901077 -120.669952 834.855896
235.382828 -120.682983 834.704773
237.892349 -120.702675 834.462769
240.351364 -120.627953 834.182251
242.853058 -120.626190 834.023438
245.397903 -120.501633 833.842773
247.860855 -120.435532 833.601685
250.305847 -120.056732 833.560120
252.533966 -120.132004 833.422058
255.698273 -119.557335 833.460205
226.265640 -119.128937 835.719238
228.080322 -118.933838 835.730713
230.452560 -118.758507 835.652283
232.821350 -118.520531 835.505676
235.423004 -118.417252 835.304077
237.880890 -118.107880 835.165955
240.384583 -118.215919 834.954163
242.858215 -118.249084 834.700134
245.318451 -118.244812 834.474060
247.831909 -118.242981 834.268066
250.364624 -118.161316 833.978455
252.938278 -118.114853 833.773254
255.237534 -117.907532 833.623230
257.740448 -117.618820 833.511230
260.095337 -117.349068 833.424683
261.883698 -117.241814 833.495361
236.262146 -116.495750 835.690491
237.920258 -116.165985 835.634460
240.555588 -115.915398 835.508606
242.951035 -115.709717 835.347900
245.419891 -115.669388 835.117065
247.913208 -115.648727 835.028931
250.361069 -115.686569 834.621826
252.838715 -115.626686 834.518921
255.317856 -115.675140 834.198242
257.949768 -115.742477 833.978149
260.439941 -115.752800 833.853516
262.779388 -115.452660 833.591919
265.018982 -115.240295 833.542969
267.795135 -114.778625 833.545410
269.587769 -114.683670 833.426514
240.969452 -114.127785 835.652222
243.409119 -113.693344 835.675171
245.077011 -113.791191 835.621094
247.900040 -113.759102 835.536682
250.429855 -113.620529 835.296570
252.921326 -113.453056 835.208740
255.484467 -113.525482 835.113098
257.884094 -113.430634 834.918091
260.386566 -113.216057 834.813293
262.932037 -113.227913 834.732300
265.450684 -113.233223 834.627991
267.895935 -113.214981 834.373291
270.310425 -113.111504 834.278748
272.817963 -113.002670 834.157227
275.354736 -113.003380 834.054016
277.882141 -112.801918 833.897217
280.383698 -112.570671 833.734924
282.680603 -112.524857 833.599609
285.283386 -112.378685 833.408264
286.766693 -112.309402 833.494324
260.731964 -111.507698 835.667175
262.820892 -111.141068 835.623779
265.548676 -111.060577 835.577698
267.891785 -110.820541 835.436646
270.402679 -110.665558 835.234009
272.905457 -110.645370 834.985107
275.380981 -110.655243 834.801147
277.899841 -110.685104 834.666382
280.372955 -110.618240 834.271423
282.923889 -110.568703 834.111206
285.424622 -110.577057 833.867249
287.852081 -110.495300 833.622131
290.143158 -110.278702 833.531372
292.740936 -109.804405 833.442749
295.226227 -109.836365 833.422180
296.740753 -109.517174 833.380920
265.483978 -109.317291 835.784607
267.854492 -108.998276 835.734436
270.243317 -108.911018 835.551270
272.978333 -108.597900 835.560730
275.366211 -108.263184 835.460266
277.862274 -108.243393 835.154358
280.408569 -108.203255 834.960938
282.884735 -108.226860 834.612122
285.377747 -108.177071 834.512451
287.858612 -108.193199 834.267578
290.352844 -108.145355 834.013062
292.853516 -108.083527 833.818787
295.262115 -108.032303 833.662720
297.917725 -107.777145 833.632324
300.160400 -107.461281 833.452393
302.261627 -107.417259 833.613647
272.093140 -106.162552 835.773376
275.192352 -106.881645 835.738892
278.110413 -106.088707 835.655151
280.547363 -105.878220 835.371460
282.831879 -105.706627 835.365845
285.360992 -105.740700 835.168640
287.924377 -105.744904 834.874023
290.380615 -105.765465 834.716553
292.836945 -105.768913 834.479370
295.376007 -105.763504 834.342285
297.892212 -105.708313 834.081970
300.411743 -105.572586 833.882446
302.718658 -105.480698 833.663818
305.229309 -105.273125 833.563599
307.419159 -105.014435 833.481079
309.717712 -104.849449 833.443298
283.490082 -103.855858 835.571106
285.488464 -103.758331 835.554932
287.882690 -103.451553 835.424927
290.411957 -103.300552 835.337463
292.875092 -103.208679 835.217712
295.388947 -103.170502 835.033569
297.944794 -103.224396 834.798706
300.382080 -103.182701 834.607971
302.858032 -103.189758 834.434204
305.398102 -103.205048 834.282837
307.863129 -103.223000 834.212891
310.333344 -103.122299 834.088989
312.901398 -102.901978 834.178711
315.365997 -102.766998 834.120728
317.690155 -102.836464 834.337036
320.422607 -102.807022 834.767883
322.942627 -102.807755 834.397583
325.524384 -102.956360 834.418884
327.983490 -103.184540 834.406189
330.176483 -103.019821 834.673889
332.760956 -102.970963 834.800232
335.321136 -103.174545 834.654724
291.226837 -101.636444 835.659546
298.365479 -101.654190 835.532532
-33.946510 -13.331327 835.380615
-33.599503 9.939138 835.421204
-8.402087 17.269651 834.643005
-8.046756 17.606243 834.037292
0.684400 17.959686 834.219421
3.830947 17.622679 834.806946
5.402817 17.822840 834.628052
7.049980 17.770248 835.163208
5.918289 18.291059 833.387878
7.404601 18.386097 833.737061
-0.013699 47.997105 833.699341
-0.188340 48.356976 833.876892
336.153381 92.482452 835.790100
326.073792 95.269699 835.773987
327.838043 94.736771 835.687622
330.628235 94.982552 835.713074
333.058533 94.788544 835.729858
335.782562 94.387772 835.739380
310.986389 98.033440 835.825256
315.411896 97.408615 835.734192
320.186676 97.954399 835.722717
323.002014 97.407486 835.670166
325.623535 97.017311 835.712952
327.861725 96.912483 835.628784
330.648438 96.921158 835.453491
332.869263 96.993874 835.384033
335.250092 96.795021 835.348572
296.221497 100.422943 835.735962
301.594421 100.447464 835.680725
303.632935 99.869080 835.692139
305.459869 100.124969 835.766663
307.858124 100.204536 835.656494
310.093384 100.053726 835.690674
313.060608 99.889389 835.568909
315.496979 99.784935 835.624329
317.965576 99.592918 835.552795
320.421967 99.422943 835.484070
322.811584 99.380455 835.350220
325.413300 99.356499 835.407349
327.980865 99.287193 835.247131
330.398407 99.330757 834.979980
332.948700 99.426094 835.110046
335.192413 99.336731 834.862061
291.457306 101.938637 835.788208
292.114746 102.001038 835.783447
295.810822 101.662415 835.666992
298.012329 102.265480 835.549622
300.615265 102.000412 835.574829
302.973724 102.183907 835.585571
305.623444 101.975845 835.587830
307.808167 102.087341 835.474182
310.240845 101.916794 835.364807
312.863525 101.865112 835.364929
315.396423 101.916962 835.201904
317.932098 101.891327 835.099854
320.380249 101.897675 834.975098
322.886169 101.879845 834.885498
325.350922 101.891449 834.689514
327.858795 101.914413 834.647705
330.316040 101.867958 834.510132
332.910431 101.922836 834.549683
335.154419 101.879295 834.349487
301.255615 103.164566 834.695557
303.281128 103.371918 835.574219
305.585144 103.411888 835.459961
307.852997 103.423485 835.048340
310.437134 103.608223 835.130798
312.949799 103.752106 835.212524
315.363220 103.748726 835.147888
317.847229 103.863632 834.662964
320.454376 103.981346 834.584961
323.003693 103.998146 834.373962
325.415039 104.112045 834.289246
327.824249 104.266563 834.293274
330.361786 104.150467 834.029236
332.900513 104.294243 833.977600
335.030151 104.310486 833.782532
331.290863 105.653328 833.343811
332.908356 105.718819 833.796631
334.474152 105.711563 833.668091
27.907663 -149.824356 836.101501
30.567631 -150.097382 836.524231
33.064415 -150.601547 836.733154
35.507362 -150.696533 836.731628
37.941193 -150.570328 836.726624
40.376225 -150.443085 836.698181
42.804466 -150.385559 836.588562
45.239090 -150.195251 836.475464
47.780777 -150.153381 836.275574
50.323463 -150.062790 836.225464
52.966522 -149.971222 836.215271
55.371914 -149.907425 836.248657
57.876122 -149.791748 836.100830
60.302681 -149.722656 836.051147
62.814507 -149.638840 835.997681
65.186775 -149.537827 836.026245
67.763908 -149.463898 836.016968
70.036850 -149.443161 835.869507
72.676430 -149.455658 835.901733
23.850618 -147.244934 835.854248
25.439348 -147.983444 836.544556
27.770895 -148.173523 837.244751
30.188711 -148.348831 837.680481
32.611515 -148.969437 837.825989
35.541389 -149.029816 837.980103
38.180210 -149.026047 837.943481
40.472294 -148.847076 837.884338
42.928741 -148.739120 837.806641
45.357197 -148.580872 837.738647
47.850246 -148.516922 837.629761
50.309483 -148.345093 837.492249
52.808674 -148.284256 837.475037
55.414783 -148.166428 837.425354
57.939598 -148.043610 837.348755
60.471672 -148.085678 837.302124
62.920010 -148.091797 837.179199
65.397850 -148.071442 837.031860
67.803322 -148.072098 836.870911
70.265999 -148.076416 836.861572
72.870773 -148.110260 836.577087
75.421173 -148.046890 836.516357
78.028770 -147.890640 836.491455
80.457184 -147.780426 836.407776
82.879761 -147.704391 836.336121
85.429901 -147.496658 836.252625
87.820999 -147.558044 836.137817
90.130554 -147.290268 836.015564
92.589172 -147.339539 836.084290
95.577530 -147.128403 835.932251
97.646652 -147.052414 835.862427
99.761688 -147.062744 835.880371
23.032383 -145.522324 836.666382
25.031416 -146.086166 837.608643
27.235029 -146.650360 838.036194
56.312534 -146.662155 838.302307
57.714054 -146.645569 838.191162
59.830818 -146.657318 838.233154
62.915836 -146.580383 838.260864
65.433136 -146.541977 838.125610
67.950539 -146.446869 837.936829
70.411652 -146.329224 837.977539
72.803551 -146.257126 837.860107
75.248703 -146.201706 837.769958
77.809204 -146.046463 837.738281
80.396400 -146.034927 837.588379
82.930046 -145.828156 837.518494
85.432404 -145.657974 837.412598
87.926888 -145.666000 837.205200
90.380356 -145.651428 837.078247
92.831566 -145.634064 836.933655
95.329544 -145.651154 836.775879
97.841217 -145.605347 836.620972
100.340584 -145.487717 836.484741
102.845352 -145.356979 836.532837
105.311195 -145.370941 836.302368
107.863174 -145.190399 836.280396
110.313210 -145.169235 836.227051
112.870285 -144.959824 836.036133
115.121674 -144.767212 835.990784
117.270920 -144.909119 835.985291
121.597946 -144.664062 835.830017
20.910841 -142.789154 836.798157
22.431843 -143.409866 837.801514
85.826736 -144.249405 838.250610
88.110359 -144.196198 838.159058
90.436897 -143.891602 838.147278
93.121597 -143.812897 838.014954
95.383949 -143.583771 837.938171
97.902390 -143.443176 837.743774
100.322624 -143.305786 837.738770
102.792229 -143.257584 837.611145
105.369980 -143.266556 837.416870
107.952141 -143.198486 837.264160
110.445610 -143.218460 837.048584
112.923393 -143.227020 836.917725
115.367630 -143.203430 836.725647
117.770737 -143.108551 836.633301
120.306854 -143.142822 836.526550
122.789253 -143.112976 836.344910
125.311699 -142.849686 836.284912
127.840416 -142.640167 836.237915
130.415634 -142.476959 836.044800
132.782883 -142.231659 836.049072
134.592712 -142.123886 835.940186
18.720770 -139.937088 836.183960
20.006390 -140.816574 837.161316
103.738892 -141.836243 838.291870
105.395432 -141.769211 838.123047
107.931236 -141.482132 838.087402
110.511360 -141.367264 838.033142
112.909286 -141.160355 837.906189
115.435127 -140.887878 837.807861
117.971382 -140.836121 837.682312
120.449615 -140.695251 837.625488
122.869530 -140.695236 837.399536
125.319397 -140.677872 837.237915
127.849625 -140.700928 837.070496
130.337784 -140.655212 836.850769
132.879807 -140.631332 836.695007
135.421280 -140.625122 836.468933
137.856415 -140.488754 836.356689
140.270142 -140.371582 836.190796
142.724533 -140.148911 836.096191
145.012039 -139.808334 836.181274
147.378387 -139.677368 835.966125
150.201935 -139.597244 835.936829
18.379742 -138.064178 837.042297
19.507946 -138.492661 838.017395
118.742760 -139.051483 838.245972
120.858253 -139.193176 838.198059
123.167488 -139.022812 838.082458
125.446541 -139.009186 838.027771
127.920937 -138.625946 837.942932
130.361954 -138.437485 837.903931
132.843216 -138.256653 837.715820
135.334579 -138.167572 837.575928
137.910614 -138.097855 837.413330
140.462418 -138.147141 837.124268
142.909637 -138.174759 836.955505
145.374695 -138.196701 836.684387
147.818848 -138.177231 836.498962
150.297989 -138.151062 836.313538
152.837769 -137.852905 836.194641
155.453110 -137.648895 836.119141
157.709290 -137.528732 836.004700
160.470352 -137.178589 836.031677
162.385651 -137.082520 835.867065
16.475353 -135.090942 835.920410
17.546247 -135.766510 837.301208
133.766129 -136.628845 838.218018
135.578659 -136.572662 838.261475
137.912125 -136.288742 838.196716
140.329742 -136.232285 837.860291
142.885345 -135.965866 837.868958
145.394882 -135.735626 837.747437
147.918060 -135.669312 837.515381
150.408005 -135.656677 837.329041
152.882187 -135.656357 837.160461
155.341080 -135.649246 836.911926
157.855515 -135.655197 836.707764
160.391876 -135.607407 836.521729
162.829971 -135.539078 836.352234
165.380295 -135.313034 836.169739
167.770294 -135.209167 836.137756
170.186127 -134.839325 835.960327
171.862732 -134.930222 835.924133
16.490765 -133.813721 836.744629
17.002224 -133.426514 837.447876
145.630783 -134.091553 838.269531
147.987701 -133.991501 838.169250
150.487534 -133.709457 838.123474
152.989746 -133.530670 837.920105
155.575562 -133.262238 837.883484
157.972733 -133.160324 837.682678
160.408997 -133.135239 837.593079
162.843307 -133.194077 837.243164
165.346634 -133.265717 837.032410
167.898483 -133.199905 836.856262
170.399109 -133.154846 836.629761
172.854019 -133.034515 836.375488
175.363480 -132.886597 836.336365
177.818115 -132.578812 836.166931
180.216522 -132.587082 836.022095
181.962067 -132.406891 836.006042
16.492016 -131.894043 836.866272
155.548157 -131.774216 838.262817
158.576584 -131.575668 838.198792
160.526962 -131.440948 838.131226
163.149277 -131.028900 838.013916
165.489395 -130.878738 837.845581
167.892670 -130.731918 837.732666
170.311584 -130.670746 837.554871
172.808578 -130.684158 837.339905
175.376099 -130.632568 837.149780
177.924118 -130.567123 836.869873
180.427277 -130.698120 836.566162
182.863510 -130.708206 836.401489
185.291260 -130.621414 836.230469
187.761383 -130.389816 836.134888
190.151840 -129.988968 836.022400
192.866837 -129.679428 836.023376
195.324738 -129.470062 835.831848
165.832565 -129.344345 838.272583
168.307007 -129.287994 838.214478
170.544067 -128.972656 838.128784
172.927948 -128.546265 838.014221
175.402054 -128.447266 837.926880
177.818268 -128.273590 837.703979
180.319092 -128.252701 837.532410
182.814011 -128.228012 837.335327
185.378494 -128.163666 837.137878
187.911163 -128.173508 836.854980
190.352890 -128.154739 836.649963
192.808121 -128.140793 836.382019
195.195724 -127.990402 836.143738
197.694107 -127.825874 836.121399
200.155060 -127.362831 836.014099
202.699371 -127.123314 835.951904
175.765839 -126.909172 838.251892
177.836823 -126.505096 838.246460
180.363022 -126.499031 838.141846
182.950943 -126.136063 837.993286
185.349838 -125.775757 837.877075
187.842285 -125.690651 837.672363
190.362640 -125.645607 837.548645
192.812012 -125.645073 837.187500
195.353256 -125.671814 836.979919
197.826630 -125.729034 836.730225
200.302277 -125.711510 836.433594
202.837372 -125.653412 836.338928
205.391220 -125.196579 836.155396
207.957764 -124.988564 836.037964
210.122208 -124.842888 835.958862
185.714783 -124.037415 838.267151
188.094696 -123.857552 838.169373
190.399261 -123.403168 838.081848
192.944595 -123.310349 837.934753
195.442001 -123.114891 837.697205
197.927551 -123.203049 837.488220
200.385284 -123.131950 837.277100
202.858582 -123.165993 837.018127
205.302246 -123.156860 836.869507
207.823944 -123.219711 836.450256
210.432358 -123.188461 836.281067
212.835587 -123.088913 836.146973
215.382721 -122.670082 836.117920
217.678909 -122.533783 835.942322
195.590714 -121.296875 838.153992
198.060608 -121.184586 838.037170
200.437851 -120.865334 837.936768
202.854416 -120.691956 837.778870
205.415802 -120.565796 837.556396
207.914337 -120.657700 837.269043
210.372406 -120.693138 837.096497
212.821945 -120.702408 836.893250
215.340714 -120.720291 836.633850
217.827026 -120.638489 836.442993
220.326706 -120.375870 836.264038
222.750275 -120.240387 836.058044
225.037079 -120.279938 835.911133
227.167923 -119.758064 835.966248
201.332825 -119.224556 838.136658
203.280090 -118.929085 838.234192
205.426559 -118.711754 837.994568
207.983551 -118.253738 837.940247
210.444260 -118.226372 837.844360
212.912384 -118.112701 837.622314
215.392334 -118.119904 837.334900
217.830215 -118.100311 837.105652
220.266556 -118.100914 836.818115
222.872375 -118.179672 836.517395
225.394058 -118.128960 836.328003
227.905029 -118.006821 836.173462
230.231445 -117.578659 836.075806
233.014297 -117.222565 835.996277
235.090027 -117.124893 835.924438
208.854126 -116.629776 838.318604
210.903687 -115.867203 838.192444
212.917435 -116.347824 838.132263
215.327515 -115.880173 837.931030
217.910416 -115.716576 837.791931
220.415649 -115.702408 837.596191
222.859955 -115.671600 837.280457
225.355621 -115.688454 837.057129
227.835388 -115.633339 836.815735
230.331924 -115.625732 836.614929
232.894852 -115.562988 836.408813
235.357986 -115.534874 836.205017
237.788940 -115.021553 836.104309
240.000580 -114.903984 835.995789
242.107147 -114.693954 835.871216
215.518646 -114.128853 838.253784
218.121796 -114.015205 838.137146
220.523682 -113.671211 838.058228
223.010681 -113.345001 837.892761
225.436218 -113.250298 837.718811
227.895187 -113.241737 837.456604
230.313232 -113.174828 837.281738
232.867554 -113.222725 837.028015
235.385544 -113.198677 836.852844
237.878723 -113.162865 836.646057
240.393326 -113.152954 836.482056
242.699844 -112.992905 836.357971
245.461685 -112.805656 836.340027
247.775604 -112.705002 836.303162
250.339737 -112.561821 836.328735
252.831711 -112.325821 836.081787
255.245758 -112.419502 836.083984
257.846741 -112.247498 835.931335
223.778259 -111.892258 838.118958
225.390030 -111.901787 838.130920
227.844086 -111.751144 838.048706
230.467606 -111.732933 838.003906
233.094727 -111.605324 837.964844
235.268661 -111.336258 837.790710
237.897461 -111.179352 837.977722
240.314880 -110.768578 837.885498
242.930054 -110.775017 837.733948
245.373505 -110.646217 837.423889
247.894791 -110.676086 837.387695
250.366608 -110.683754 837.184814
252.866501 -110.704041 836.909607
255.392212 -110.666916 836.625244
257.875793 -110.687363 836.483582
260.303986 -110.517082 836.286499
262.925781 -110.167313 836.069275
264.996338 -110.148033 835.990906
267.507935 -109.843925 835.944397
240.520691 -109.003334 838.167419
243.302673 -108.955658 838.162415
245.581436 -108.507179 838.086121
247.953720 -108.386169 838.031128
250.443527 -108.205055 837.908386
252.880692 -108.103645 837.603394
255.358185 -108.089485 837.390503
257.847107 -108.140518 837.122009
260.339722 -108.180229 836.884155
262.881165 -108.173935 836.707397
265.400269 -108.139473 836.495483
267.870361 -107.862373 836.232544
270.450470 -107.639359 836.145752
272.721710 -107.398994 836.059631
275.582947 -107.095505 836.014648
276.841797 -106.926270 836.027710
244.891632 -106.689484 838.208923
248.850311 -106.715515 838.262634
250.852524 -106.358818 838.169373
252.977295 -106.007042 838.029297
255.407959 -105.893341 837.927734
257.980804 -105.735794 837.843079
260.391754 -105.593140 837.574524
262.877655 -105.596588 837.333008
265.329742 -105.580917 837.054810
267.873016 -105.618523 836.978394
270.364685 -105.587646 836.633179
272.885620 -105.514282 836.446899
275.400452 -105.603630 836.209717
277.694458 -105.253548 836.074219
279.921722 -104.950195 835.968689
283.144226 -104.722328 835.861938
284.310974 -105.170120 835.856567
252.792358 -104.255264 838.294006
255.288177 -103.906876 838.248657
258.726715 -103.852196 838.150757
260.436890 -103.522163 838.044434
262.855835 -103.198997 837.857422
265.415680 -103.244965 837.791138
267.859039 -103.124504 837.488464
270.421661 -103.154480 837.304443
272.869659 -103.155495 836.930847
275.419708 -103.112602 836.822327
277.844299 -103.104088 836.480408
280.395447 -103.040504 836.306458
282.849060 -102.996849 836.130981
285.325439 -102.613602 836.123657
287.950134 -102.198532 836.041626
290.135254 -102.080498 835.957397
297.257385 -102.053337 835.947449
302.414368 -102.001114 836.791748
305.045197 -102.096413 836.008667
308.074127 -102.112595 836.029053
310.477386 -102.129593 836.988281
313.025482 -102.141090 837.003723
315.444977 -102.071373 836.753784
318.055756 -102.272736 836.991272
320.365448 -102.262123 836.819336
322.794342 -102.215797 836.967957
325.632141 -102.318649 837.492859
327.885559 -102.422440 837.088623
330.432281 -102.373978 837.123108
332.703064 -102.273354 836.805847
335.284271 -102.448151 837.015381
336.926270 -102.235565 837.495544
260.141846 -101.277100 838.317322
263.099274 -101.513794 838.202576
265.328491 -101.345192 838.102844
267.764648 -101.275574 838.005615
270.372192 -101.353241 837.838684
272.868439 -101.191391 837.627991
275.326355 -101.240921 837.363831
277.860565 -101.276291 837.341431
280.379456 -101.279129 837.198547
282.683044 -101.297005 836.982239
285.465363 -101.443298 837.091125
287.943604 -101.435356 836.904541
290.201355 -101.401833 836.849365
292.976624 -101.470665 837.021606
295.560425 -101.568237 837.037598
297.847778 -101.514336 837.346802
300.560883 -101.729301 837.420166
302.897644 -101.761261 837.436279
305.545868 -101.701538 837.345825
307.726990 -101.678314 837.199951
310.136414 -101.709244 837.915100
312.837097 -101.683731 838.195190
315.250580 -101.712021 837.682922
317.855011 -101.650742 838.106506
320.332397 -101.718872 838.214294
322.897552 -101.556435 838.003174
325.019257 -101.562103 837.850952
328.139252 -101.679672 838.033386
330.722351 -101.733154 837.965637
332.947601 -101.400665 837.935547
335.242950 -101.347969 837.878601
337.214722 -101.331039 837.952942
-34.014866 -17.390251 837.056885
-34.007072 -13.109727 836.871155
-33.997700 -10.781645 836.642334
-34.013283 -9.325618 837.026367
-34.024193 -2.840212 837.291870
-34.046673 0.140977 837.840698
-34.383659 4.350165 837.491516
-34.376572 6.805013 837.311951
-34.118935 8.997880 837.432495
-33.159855 10.024096 836.689026
-32.569996 10.820610 835.938843
5.586669 17.472492 835.983398
333.842438 80.098396 838.287170
335.685425 79.778160 838.199219
337.073395 80.143524 838.230896
326.339386 82.958672 838.163940
327.336548 81.312576 838.270813
330.867828 82.032974 838.184082
333.019257 81.806038 838.187622
335.317932 81.843826 838.067505
337.109131 81.952927 838.106079
315.423492 85.403343 838.235352
318.328430 85.451744 838.277588
320.565033 84.901848 838.183533
322.942474 85.068413 838.070801
325.757812 84.688835 838.091614
327.930145 84.715500 838.047241
330.511169 84.508263 837.952942
332.909058 84.342026 837.871338
335.445435 84.343277 837.780273
337.052582 84.332199 837.736450
301.364594 87.763184 838.242065
301.754700 87.951218 838.321289
305.282990 87.668060 838.272522
307.928894 87.514893 838.170166
310.687012 87.752655 838.247375
312.961517 87.538483 838.165588
315.578064 87.327332 838.123413
318.213745 86.992683 838.150513
320.429688 87.014648 838.018494
322.910919 86.997055 837.944336
325.356812 86.917946 837.695129
327.909424 86.957840 837.742737
330.347412 86.901619 837.552856
332.885193 86.941757 837.413452
335.295288 86.854713 837.283813
336.903809 86.954651 837.278320
290.920135 88.954086 838.251770
293.109070 89.861084 838.314514
295.439087 90.047081 838.274963
298.146759 90.062561 838.285400
300.710938 89.795059 838.149292
302.718658 89.620239 838.027832
305.393005 89.407372 838.128601
307.923187 89.584579 838.056702
310.391815 89.482460 838.056152
312.902863 89.443161 837.939758
315.309235 89.347572 837.754517
317.793579 89.399483 837.765320
320.338837 89.436996 837.665833
322.796692 89.361168 837.515564
325.359863 89.404854 837.383728
327.878601 89.427269 837.243896
330.353180 89.401756 837.176208
332.864441 89.335526 836.889404
335.456146 89.408470 836.860229
336.896393 89.392960 836.780884
279.837219 92.553940 838.280640
282.728088 92.636772 838.197632
285.516663 92.473907 838.195129
288.396393 92.263260 838.194153
290.524719 92.203857 838.186096
292.958710 91.991379 838.108826
295.408875 92.024818 838.014099
298.010742 91.971748 837.897827
300.390564 91.830597 837.934937
302.835144 91.845322 837.812134
305.385681 91.838158 837.832886
307.929230 91.807602 837.683044
310.387024 91.850922 837.554382
312.890381 91.790001 837.454285
315.421906 91.865395 837.303833
317.882050 91.838402 837.284607
320.376007 91.828262 837.203369
322.830658 91.829346 836.958923
325.362366 91.809143 836.846924
327.872070 91.831306 836.734253
330.365875 91.827866 836.582947
332.828613 91.854210 836.499512
335.279633 91.790535 836.408936
336.798615 91.639313 836.509460
258.925964 95.526527 838.200867
260.490784 95.420120 838.230896
262.688263 95.189613 838.179260
265.950806 95.306435 838.269287
267.912079 94.336807 838.237427
270.601471 94.971481 838.168335
273.282593 94.122124 838.171509
275.617462 94.882561 838.149414
278.028900 94.351944 838.115784
280.435364 94.652214 838.035156
282.871033 94.456635 838.104614
285.359802 94.319580 837.872009
287.911407 94.284569 837.888916
290.379395 94.200699 837.810791
292.915741 94.265739 837.756165
295.399353 94.225952 837.667053
297.911987 94.261452 837.538818
300.379700 94.233757 837.428589
302.892792 94.257050 837.382446
305.367249 94.255974 837.250610
307.795929 94.240944 836.994568
310.329926 94.258179 837.025696
312.827637 94.264290 836.958069
315.315857 94.267487 836.865112
317.862244 94.306160 836.776062
320.330078 94.241013 836.583008
322.799133 94.245842 836.503540
325.283966 94.249420 836.421204
327.911987 94.229210 836.232788
330.430542 94.128021 836.209534
332.849701 94.185112 836.103394
335.309296 94.190536 836.036804
243.885422 97.934204 838.245728
245.905502 97.586624 838.213501
247.563156 97.343285 838.223145
250.155457 97.506195 838.237183
252.971573 97.626015 838.218079
255.291916 97.449905 838.118347
257.761536 97.107185 838.168335
260.753998 97.082512 838.133057
262.752655 97.091606 838.022949
265.455750 97.041092 838.100281
267.884003 97.057457 838.024780
270.356293 96.898933 837.968628
272.892853 96.975945 837.896851
275.358612 96.877785 837.729614
277.845337 96.819382 837.683716
280.319092 96.900711 837.567932
282.872803 96.843826 837.622314
285.378174 96.794029 837.520508
287.787720 96.810341 837.338257
290.285767 96.806755 837.296631
292.816681 96.834145 837.099731
295.434296 96.835785 837.040222
297.913116 96.823189 836.950500
300.368561 96.760277 836.903564
302.848175 96.779327 836.758423
305.352417 96.818512 836.748962
307.886047 96.734337 836.628296
310.415222 96.788254 836.563049
312.894775 96.818527 836.392151
315.458771 96.701096 836.312805
317.968018 96.725639 836.278320
320.437653 96.660080 836.160583
322.875336 96.377274 836.103394
325.273804 96.500153 836.015503
327.837677 96.368774 835.988464
329.821930 96.404549 836.014648
332.834595 95.829102 836.008484
336.583771 95.696907 835.922791
245.324493 98.298264 838.256531
247.300430 98.405289 838.064819
250.527603 98.771027 838.258484
252.794952 98.771912 837.991333
255.168320 98.848892 838.022583
257.887970 98.969276 838.031311
260.219727 98.956543 837.910217
262.851959 98.943062 837.869629
265.391998 99.149483 837.740234
267.824219 99.215584 837.500305
270.321320 99.357582 837.389343
272.910065 99.396828 837.332397
275.472198 99.417442 837.321533
277.977386 99.463104 837.275818
280.369812 99.406525 836.989258
282.897705 99.388603 836.886780
285.441162 99.426788 837.036987
287.867493 99.416702 836.766235
290.419617 99.370750 836.781555
292.900665 99.471550 836.679932
295.351440 99.355331 836.584656
297.936218 99.431793 836.468018
300.396393 99.353661 836.406555
302.855103 99.330109 836.283203
305.422546 99.323868 836.190796
307.863922 99.179970 836.123535
310.377899 99.060867 836.109741
312.640320 99.120079 836.048950
315.258514 98.852165 836.046143
317.695831 98.602356 836.008057
320.199799 98.094635 835.911926
321.849304 98.112328 835.986755
325.621094 98.129761 835.958984
269.979919 100.875069 837.844604
273.300446 100.794884 837.005676
275.969391 100.822876 837.111145
278.143799 100.906525 837.044678
280.478943 101.089836 836.851990
282.917572 101.226898 836.793091
285.440765 101.391701 836.553711
287.933960 101.421860 836.486023
290.260956 101.501701 836.236450
293.011017 101.611069 836.269470
295.214844 101.744873 836.181702
297.947937 101.504860 836.070007
299.995911 101.695869 836.025269
302.672150 101.286354 836.051575
305.052490 101.707565 835.994568
308.207214 101.179955 835.924561
311.272400 100.903671 836.066284
312.482483 101.071960 835.930176
304.215271 103.330643 835.919373
312.832306 104.083481 835.855652
28.850012 -146.987335 838.380005
30.478317 -147.137634 838.621826
32.885780 -147.837051 838.933289
35.282330 -147.859543 838.912598
37.853123 -147.820923 838.928772
40.463696 -147.617264 838.789612
42.922379 -147.509079 838.728027
45.426140 -147.329346 838.521301
47.807255 -147.284622 838.537720
50.198196 -147.151581 838.536926
52.678043 -147.022720 838.381287
54.322956 -147.145538 838.391296
63.364426 -147.040207 838.355713
25.734797 -145.143524 838.780579
27.922136 -145.452759 839.129211
30.302031 -145.615845 839.642639
32.735401 -145.948654 840.159546
35.212124 -146.060150 840.223511
37.854820 -145.987961 840.046265
40.420372 -145.753860 840.081787
42.988064 -145.669540 839.981628
45.474380 -145.669022 839.830383
47.931686 -145.635941 839.615967
50.396255 -145.626938 839.539917
52.856422 -145.606735 839.396912
55.301655 -145.577057 839.328857
57.787441 -145.422226 839.298401
60.305344 -145.562851 839.094604
62.878983 -145.481293 839.065979
65.437187 -145.448395 838.966248
67.973885 -145.221573 838.978027
70.459663 -145.170547 838.807800
72.893799 -145.079971 838.721252
75.466194 -144.963013 838.667114
77.664772 -144.814972 838.506042
80.034348 -144.811279 838.526489
82.646835 -144.693741 838.486755
23.442934 -142.836655 838.759033
25.294502 -143.197449 839.787964
27.618969 -143.660538 840.304260
30.191639 -144.035889 840.548035
31.746729 -144.189713 840.608032
43.756397 -144.231461 840.757385
45.994923 -144.241272 840.794006
48.163647 -144.111313 840.635803
50.566971 -143.971664 840.598511
52.922684 -144.025940 840.502441
55.416698 -143.881210 840.556458
57.878658 -143.718048 840.480713
60.343590 -143.705002 840.375061
62.867863 -143.489655 840.421692
65.279808 -143.623947 840.125854
67.845352 -143.431595 840.191772
70.393753 -143.274963 840.041687
72.925415 -143.284119 839.927185
75.464935 -143.254639 839.811462
77.918518 -143.207932 839.537109
80.377182 -143.190323 839.394836
82.833595 -143.169724 839.234192
85.270905 -143.082092 839.090637
87.801338 -142.964890 838.863831
90.366119 -142.666306 838.986023
92.804962 -142.560379 838.768677
95.510849 -142.414642 838.568298
97.707489 -142.354431 838.545227
100.398979 -142.299500 838.407166
102.983955 -142.200195 838.366516
21.061857 -140.440216 838.917053
22.850889 -140.782944 839.785095
24.680122 -141.312668 840.406372
71.312294 -141.808899 840.790771
75.834618 -141.585663 840.627380
78.066856 -141.455704 840.588318
80.532143 -141.311844 840.479980
82.975906 -141.178589 840.378906
85.471596 -140.987518 840.255676
87.907578 -140.732239 840.183777
90.338226 -140.683075 840.117981
92.789719 -140.653854 839.898682
95.307632 -140.760605 839.545166
97.905190 -140.708572 839.386963
100.444748 -140.709198 839.244995
102.898468 -140.657333 838.941406
105.390511 -140.512711 838.942139
107.780922 -140.260254 838.754333
110.194305 -140.118652 838.733826
112.756958 -139.888062 838.622192
115.202545 -139.676758 838.539307
117.834610 -139.607697 838.419312
119.656761 -139.442108 838.446472
20.656157 -138.142212 839.540039
22.350664 -138.834641 840.430908
88.448792 -139.353577 840.683960
89.700615 -139.377960 840.809448
92.985161 -139.153488 840.644287
95.380737 -138.906708 840.560974
97.773720 -138.696014 840.424500
100.284882 -138.616455 840.356628
102.904526 -138.294647 840.237061
105.396606 -138.091202 840.019592
107.946838 -138.156723 839.797913
110.442093 -138.192307 839.665222
112.888771 -138.162872 839.432922
115.342041 -138.142639 839.255371
117.777542 -138.106140 839.113098
120.303749 -138.138824 838.908020
122.756920 -137.825287 838.755554
125.438881 -137.688873 838.713257
127.940910 -137.348709 838.664734
130.445221 -137.217270 838.473022
132.574661 -137.025421 838.509827
18.702040 -135.380310 838.912537
19.822966 -135.844940 839.984497
107.904984 -136.700119 840.622437
110.507736 -136.312408 840.478455
113.067467 -136.018539 840.437073
115.521629 -135.869385 840.297363
117.950485 -135.664261 840.164429
120.401527 -135.632095 840.048096
122.820923 -135.648178 839.806396
125.284439 -135.741501 839.511536
127.791725 -135.755508 839.322510
130.389984 -135.689789 839.149170
132.925262 -135.614105 838.945129
135.413086 -135.543457 838.730042
137.858673 -135.243378 838.657043
140.255112 -135.049225 838.591064
142.722778 -134.914886 838.515503
145.289093 -134.571976 838.331238
18.154446 -133.122589 839.592407
19.386971 -134.244949 840.536743
116.602478 -134.142487 840.798767
118.620888 -133.989563 840.747498
120.483246 -133.944138 840.664185
123.109108 -133.825119 840.593140
125.468941 -133.604736 840.390381
127.909073 -133.429459 840.274292
130.367294 -133.240723 840.237671
132.840225 -133.224579 839.984131
135.417404 -133.164581 839.770935
137.952103 -133.138992 839.543518
140.443893 -133.083481 839.358337
142.928864 -133.138428 839.117188
145.352432 -133.179016 838.867249
147.777496 -133.018173 838.772156
150.110550 -132.667847 838.659119
152.661957 -132.468063 838.630310
154.749405 -132.292816 838.488220
156.981354 -132.145142 838.328857
17.735973 -130.667007 839.943848
131.361679 -131.346954 840.720581
133.271362 -131.266830 840.694275
135.322311 -131.283905 840.541138
137.937607 -130.991852 840.412537
140.383209 -130.777252 840.272766
142.854111 -130.642136 840.095276
145.359024 -130.737961 839.860901
147.905792 -130.664932 839.609741
150.424347 -130.686661 839.388977
152.874435 -130.667191 839.193665
155.293854 -130.587631 838.907593
157.726364 -130.558517 838.778320
160.339569 -130.195221 838.697876
162.550201 -130.162766 838.481750
165.124512 -129.961639 838.470093
167.280487 -129.724960 838.400757
17.312498 -128.455521 840.089050
140.829346 -129.261795 840.760620
142.625748 -129.083633 840.707947
145.281387 -128.685364 840.567078
147.827133 -128.463043 840.464783
150.319580 -128.200378 840.284363
152.880600 -128.139679 840.138977
155.448090 -128.104645 839.886597
157.922668 -128.130966 839.661255
160.358185 -128.116928 839.496948
162.821289 -128.242065 839.124023
165.311890 -128.202728 838.974731
167.796356 -128.066528 838.774780
170.353561 -127.675720 838.687439
172.876801 -127.228531 838.503906
175.238937 -127.266617 838.471069
178.287994 -126.944771 838.407898
17.003820 -126.023621 840.026306
150.449738 -126.666191 840.765930
152.793365 -126.313927 840.717468
155.247513 -126.186523 840.558105
157.840805 -125.904533 840.484985
160.396454 -125.792183 840.341614
162.900574 -125.674286 840.012451
165.396851 -125.668411 839.757446
167.862289 -125.661072 839.632629
170.295731 -125.630264 839.350586
172.783539 -125.640549 839.198792
175.373627 -125.589218 838.959045
177.935181 -125.517326 838.704529
180.466034 -125.177223 838.652161
182.710129 -124.960350 838.533386
184.971008 -124.783806 838.428589
16.917599 -124.017609 840.808167
158.109131 -124.009674 840.752563
160.587357 -124.364105 840.676270
162.755081 -123.922005 840.622253
165.379379 -123.564041 840.522949
168.004898 -123.323471 840.364807
170.448242 -123.244225 840.194092
172.900589 -123.221657 839.962708
175.356689 -123.235466 839.785645
177.802124 -123.215698 839.425354
180.344574 -123.191650 839.183899
182.872513 -123.157646 839.009094
185.307953 -122.912758 838.795471
187.801193 -122.793747 838.636841
190.176605 -122.412224 838.513184
192.394318 -122.237236 838.453247
166.107086 -121.559204 840.747559
167.176666 -121.741638 840.749451
170.649750 -121.396996 840.660400
173.094025 -121.062805 840.587341
175.478455 -120.751427 840.392395
177.930710 -120.650108 840.226013
180.370621 -120.655884 840.029480
182.800781 -120.756218 839.767029
185.277145 -120.731743 839.554688
187.874329 -120.707703 839.244812
190.473312 -120.724625 839.042358
192.939392 -120.693657 838.791870
195.283752 -120.434113 838.617371
197.647034 -120.254936 838.570923
199.831512 -119.910751 838.486023
202.830017 -119.744621 838.421143
176.614304 -119.125534 840.779297
178.267395 -118.919250 840.732056
180.736221 -118.397041 840.596802
183.013489 -118.360489 840.391663
185.460373 -118.209114 840.285522
187.852432 -118.180214 839.999084
190.284241 -118.151382 839.711365
192.855621 -118.226830 839.454102
195.475510 -118.233421 839.200928
197.968124 -118.266449 839.003113
200.393875 -118.227493 838.798157
202.744339 -118.046989 838.631592
205.279694 -117.643349 838.588501
207.014969 -117.442604 838.368225
209.840515 -117.183960 838.446655
180.887543 -116.662804 840.802429
184.092560 -116.496506 840.778992
185.832855 -116.384537 840.728882
188.257889 -115.959145 840.606018
190.506454 -115.712036 840.493530
192.880386 -115.643097 840.136475
195.334595 -115.705368 839.974243
197.856628 -115.748779 839.693726
200.427505 -115.643997 839.381409
202.902115 -115.694908 839.249634
205.375580 -115.608299 839.094543
207.843582 -115.614235 838.826477
209.955429 -115.594337 838.678833
212.692062 -115.221107 838.505188
215.053711 -114.781502 838.401245
216.931946 -114.749039 838.529053
191.226105 -113.692604 840.810303
192.890686 -113.858498 840.667358
195.509964 -113.270149 840.582214
197.922974 -113.140152 840.433655
200.376221 -113.124725 840.233154
202.803040 -113.094940 839.924683
205.290649 -113.097786 839.752197
207.869034 -113.102432 839.456970
210.439987 -113.130722 839.232239
212.897064 -113.167931 838.946411
215.313187 -112.997765 838.693359
217.705154 -112.868088 838.618958
220.201279 -112.472168 838.512878
222.481888 -112.111206 838.482544
198.286728 -111.467346 840.747070
200.657883 -111.332054 840.625732
202.868332 -111.271149 840.409424
205.434006 -111.228523 840.330811
207.874908 -110.888962 840.174377
210.338959 -110.969704 840.125916
212.877289 -110.806160 840.077332
215.419174 -110.704391 839.849976
217.870575 -110.664391 839.627563
220.335159 -110.652855 839.613953
222.837845 -110.657608 839.503235
225.360779 -110.627762 839.288757
227.876007 -110.434616 839.049438
230.460556 -110.499298 838.984924
232.865463 -110.408745 838.904297
235.457779 -110.070000 838.706665
237.802261 -110.134422 838.461426
240.539902 -110.000748 838.383667
242.376816 -109.607857 838.383240
213.377182 -109.355621 840.816101
216.209259 -109.352417 840.688171
218.167953 -108.661888 840.657715
220.530319 -108.484695 840.481934
223.022629 -108.454712 840.397949
225.400818 -108.244331 840.241760
227.848724 -108.263535 839.911072
230.344467 -108.239136 839.681519
232.924194 -108.224030 839.576111
235.462250 -108.158836 839.241394
237.960724 -108.175598 839.005249
240.392395 -108.062950 838.850952
242.795654 -108.016365 838.697144
245.051651 -107.768257 838.542664
247.490417 -107.488220 838.414246
249.556458 -107.240379 838.458496
221.235657 -106.545181 840.781433
223.097900 -106.810570 840.703369
225.591217 -106.593124 840.647705
228.090942 -105.838150 840.493774
230.434982 -105.694168 840.368896
232.943069 -105.703033 840.171021
235.372299 -105.670937 839.995850
237.835434 -105.778259 839.592407
240.388733 -105.768745 839.476746
242.951630 -105.703362 839.237732
245.425293 -105.711342 838.877991
247.881348 -105.671906 838.815247
250.355087 -105.660240 838.647827
252.675766 -105.106583 838.488770
255.433411 -104.751724 838.476746
257.229797 -104.796509 838.481873
230.870346 -103.997597 840.654175
233.188431 -103.586044 840.610474
235.552277 -103.325401 840.502075
237.956680 -103.279373 840.269104
240.385986 -103.157585 840.140442
242.844101 -103.157173 839.863220
245.333054 -103.170197 839.694885
247.867233 -103.298744 839.427979
250.415527 -103.137856 839.259521
252.961823 -103.239975 838.873413
255.428772 -103.240639 838.721741
257.819977 -103.146080 838.724243
260.017609 -102.497101 838.560181
265.200775 -102.198357 838.402588
319.595520 -102.094635 838.407715
235.196320 -101.454422 840.768311
238.937897 -101.459526 840.668274
240.385727 -101.108742 840.597229
242.913940 -100.705177 840.463806
245.446167 -100.558296 840.432922
247.899246 -100.756500 840.045959
250.391418 -100.572067 839.949463
252.890778 -100.734879 839.706177
255.435776 -100.688187 839.446167
257.946686 -100.700233 839.328796
260.451874 -100.788559 838.987854
262.882812 -100.482811 839.071106
265.285156 -100.261131 839.142334
267.913086 -100.221756 839.446106
270.355774 -100.359238 839.375122
272.894379 -100.195450 839.495117
275.379608 -100.401192 839.664124
278.091248 -100.576187 839.649963
280.431793 -100.450424 839.536194
282.937683 -100.574463 839.842102
285.355377 -100.725365 839.642151
287.951538 -100.789200 839.653625
290.316162 -100.663475 839.447754
292.898285 -100.770515 839.801697
295.407623 -100.932190 839.660400
297.916077 -100.785698 839.853699
300.440887 -100.760880 839.985657
302.827942 -100.940681 839.717651
305.362885 -100.881134 839.648804
308.026184 -100.628494 839.797668
310.461548 -100.691017 839.846069
312.853363 -100.787544 839.765747
315.453674 -100.470261 839.689087
317.914825 -100.445084 839.636475
320.354980 -100.510468 839.453918
322.845856 -100.383636 839.338440
325.416870 -100.502769 839.139587
327.816589 -100.469833 839.165588
330.314758 -100.516617 839.080750
332.836182 -100.234306 839.045837
335.564026 -100.233772 838.863525
337.118011 -100.484322 838.619934
248.250427 -99.183662 840.605713
252.804535 -99.227417 840.803894
315.378845 -98.782326 840.680237
317.797241 -98.777443 840.549744
320.747894 -98.667992 840.523438
322.903015 -98.516701 840.352844
325.439056 -98.203209 840.334534
327.861145 -98.189072 840.171448
330.390381 -98.078285 840.103455
332.876831 -98.165993 839.864868
335.353760 -98.111870 839.745850
337.371490 -98.205925 839.544189
325.009186 -96.339447 840.803284
327.875854 -96.341896 840.723633
330.521088 -96.459465 840.618286
332.938995 -95.839676 840.474121
335.449524 -95.880722 840.326965
337.626129 -95.643150 840.413940
330.789246 -94.219322 840.785583
332.977570 -94.231796 840.822449
335.594727 -93.827957 840.769409
337.832001 -93.804878 840.610596
-33.815678 -19.933783 840.817017
-33.776146 -18.152184 839.837830
-33.762779 -15.682709 839.509705
-33.769444 -13.224109 839.678467
-33.760754 -10.759412 839.464294
-33.688335 -8.494837 839.610107
-33.688885 -5.519777 839.428345
-33.708115 -3.154646 839.247803
-33.775612 -0.562190 839.828247
-34.160667 2.031784 839.561707
-34.142792 4.434890 840.196655
-34.125252 6.825018 839.758301
-34.160873 8.416472 840.629883
8.081388 49.607063 840.234802
8.081884 50.843132 840.277954
333.522705 69.620537 840.790039
335.326477 70.062675 840.648865
337.878113 69.362671 840.690613
326.436066 72.617607 840.710327
328.209137 72.570488 840.765808
330.361755 72.361420 840.762939
332.921204 72.288742 840.711914
335.542664 72.122101 840.652283
337.621307 71.933945 840.500854
298.974762 75.357765 840.824951
300.028564 75.354897 840.737305
303.638306 75.369598 840.716125
304.820129 75.020317 840.737183
308.789642 75.087868 840.623474
310.609497 75.152267 840.585266
312.951111 75.260933 840.734436
315.245087 75.096809 840.526306
317.901093 74.978767 840.646790
320.516235 74.793251 840.532471
323.119537 74.538094 840.570557
325.250061 74.513100 840.576904
327.994446 74.683357 840.449280
330.332703 74.411659 840.291504
332.922424 74.426781 840.328003
335.369843 74.357727 840.180908
337.421539 74.389015 840.011047
288.822113 77.794121 840.701843
289.565704 77.091431 840.772766
292.662445 77.743706 840.731873
295.839600 77.036346 840.695007
297.933136 77.239143 840.608154
300.204865 77.000977 840.576050
302.998535 76.888901 840.638184
305.377686 76.898369 840.579285
307.869141 76.786423 840.393982
310.360382 76.827667 840.218445
312.841522 76.814476 840.203003
315.396973 76.818451 840.125122
317.892242 76.786819 839.964661
320.396240 76.790657 839.964111
322.869293 76.835480 839.923645
325.307281 76.794273 839.751282
327.891327 76.819771 839.821716
330.359344 76.816223 839.579346
332.871796 76.822624 839.524963
335.395599 76.839302 839.426758
337.317261 76.793694 839.276550
275.686218 80.233261 840.791382
279.049072 79.519707 840.604675
281.438812 79.187630 840.740906
283.145081 79.771454 840.706848
285.582123 79.826965 840.642273
287.887817 79.558151 840.698914
290.107117 79.505852 840.609863
292.958984 79.271240 840.423096
295.392365 79.289764 840.524414
297.877655 79.239990 840.376770
300.325531 79.243774 840.214722
302.817719 79.216202 840.186279
305.345947 79.262726 840.021973
307.842468 79.225517 839.868835
310.344330 79.236382 839.853638
312.864471 79.253830 839.756042
315.400879 79.247131 839.633728
317.909302 79.240341 839.432495
320.462860 79.237679 839.427795
322.935181 79.242302 839.199646
325.444366 79.248703 839.141357
327.976868 79.233772 839.084717
330.406403 79.297630 838.994934
332.802795 79.181480 838.804321
335.339844 79.204033 838.615906
337.175842 78.917664 838.606018
260.023315 83.006889 840.804749
263.989380 82.671837 840.821045
264.768921 82.621628 840.722351
267.134033 82.750099 840.735168
270.190155 82.785873 840.765869
273.056610 82.652199 840.710693
275.443726 82.146454 840.648865
278.135956 82.191498 840.660034
280.482239 81.863945 840.562134
283.024902 81.880798 840.542969
285.444336 81.740311 840.483643
287.942169 81.733727 840.324951
290.423828 81.778244 840.177917
292.838257 81.754837 840.066406
295.433594 81.714859 840.083252
297.881409 81.769012 840.013062
300.391785 81.729683 839.853455
302.941803 81.749947 839.824768
305.371490 81.776215 839.610901
307.923096 81.765923 839.570251
310.418610 81.674393 839.549500
312.937164 81.732880 839.364014
315.387604 81.702713 839.227966
317.868622 81.694855 839.020447
320.429077 81.714722 839.098999
322.871094 81.704338 838.867798
325.381287 81.694565 838.873352
327.845642 81.717957 838.604797
330.175446 81.567337 838.582581
332.693665 81.632744 838.492065
335.283173 81.558380 838.421631
337.071106 80.871414 838.396851
243.832443 85.414688 840.764587
250.909393 85.332550 840.782837
252.775650 85.258553 840.741699
254.933746 85.110939 840.740601
258.213226 84.919754 840.742554
260.453339 84.779648 840.601624
262.928375 84.683708 840.698608
265.648682 84.547958 840.696411
267.742249 84.651794 840.530945
270.469940 84.566254 840.479858
272.886963 84.480476 840.437012
275.421204 84.472374 840.376526
277.856842 84.428932 840.176575
280.368500 84.390251 840.200989
282.884583 84.443390 840.066772
285.393341 84.324875 840.023987
287.888641 84.390236 839.853210
290.359192 84.349846 839.767151
292.861237 84.378166 839.696716
295.332520 84.338371 839.652588
297.846619 84.378181 839.442383
300.322052 84.352829 839.282471
302.851990 84.338943 839.304932
305.364380 84.437340 839.182739
307.828644 84.331528 839.176697
310.282745 84.325516 838.992004
312.807373 84.389580 838.829407
315.331329 84.235313 838.778870
317.783203 84.244041 838.707520
320.354950 84.248009 838.620789
322.834290 83.801598 838.574341
325.086182 84.043648 838.521118
327.921448 83.635033 838.424805
329.999756 83.322075 838.502869
332.998413 83.132202 838.401062
337.126038 83.144432 838.326904
231.287781 87.848198 840.815125
233.613220 87.146759 840.799561
236.097092 87.613762 840.777649
237.828522 87.864845 840.666809
240.376816 87.545341 840.692566
242.833893 87.439690 840.738953
245.872101 87.253273 840.673706
247.597168 87.308952 840.634399
250.418091 87.187073 840.578003
252.810959 86.879860 840.520569
255.298233 86.905273 840.490662
257.822937 86.982857 840.396179
260.257904 86.947891 840.359558
262.780273 86.874580 840.270264
265.300507 86.944748 840.202026
267.901154 86.891815 840.180603
270.342712 86.872726 840.023804
272.843292 86.936226 840.019104
275.389984 86.869621 839.784607
277.928772 86.944382 839.749817
280.325073 86.890167 839.691345
282.783661 86.920311 839.639648
285.298309 86.934883 839.449585
287.840179 86.881302 839.437378
290.344910 86.966278 839.296204
