ply
format ascii 1.0
element vertex 1402
property float x
property float y
property float z
end_header
-80.007294 -144.047974 834.049500
-76.872650 -143.996582 834.098755
-74.390503 -144.176575 834.144897
-72.068199 -143.610748 834.082703
-69.742226 -143.507294 834.001953
-67.149437 -143.614609 833.875427
-64.625999 -143.746078 833.597778
-62.099819 -143.812759 833.526611
-59.604851 -143.953842 833.432495
-57.097488 -143.958847 833.197144
-54.563927 -144.022232 833.064026
-52.087933 -144.112152 832.937073
-49.650166 -143.830276 832.842834
-47.295933 -143.863892 832.779114
-45.709900 -143.568481 832.772034
-39.046440 -143.323395 832.890442
-72.794724 -142.030975 834.330505
-69.126442 -141.945709 834.332031
-66.870232 -142.095993 834.349243
-64.626717 -141.729919 834.281250
-62.144962 -141.514420 834.267944
-59.554562 -141.376740 834.161560
-57.030460 -141.453125 834.005981
-54.567299 -141.541016 833.793579
-52.044468 -141.603653 833.638184
-49.540962 -141.650696 833.513611
-47.045319 -141.812256 833.291992
-44.541855 -141.883255 833.167175
-42.160164 -141.868423 833.039246
-39.760956 -141.680298 833.162598
-37.175617 -141.110931 833.044922
-34.421192 -141.231339 833.020752
-31.517078 -141.155563 833.114075
-62.683235 -139.831070 834.560791
-59.591022 -139.976440 834.562317
-56.944923 -139.769165 834.556702
-54.420361 -139.237228 834.429382
-51.983791 -139.230499 834.363770
-49.554752 -139.198685 834.166626
-47.065689 -139.317902 834.184570
-44.542934 -139.463531 833.933716
-41.967426 -139.441910 833.731445
-39.415924 -139.559235 833.662964
-37.014660 -139.609238 833.441284
-34.622646 -139.650864 833.265137
-32.045643 -139.453186 833.211182
-29.898640 -139.230621 833.268799
-27.201084 -139.066635 833.197205
-54.142189 -137.712738 834.719788
-50.932106 -136.577301 834.829468
-49.619625 -137.291016 834.709778
-46.853142 -137.153793 834.601929
-44.433876 -136.861984 834.550537
-41.876797 -136.988312 834.561829
-39.454479 -137.006577 834.416565
-36.957809 -137.125549 834.190613
-34.438919 -137.149078 834.077087
-32.003262 -137.286148 833.791504
-29.424004 -137.468765 833.666138
-26.970282 -137.398651 833.618164
-24.468969 -137.293854 833.556458
-22.009144 -137.049088 833.450684
-19.180513 -136.836823 833.378662
-17.905867 -136.740738 833.385376
-43.440697 -134.860428 834.978271
-42.100338 -134.976913 834.964417
-39.333950 -134.756149 834.904846
-36.767178 -134.718185 834.903442
-34.355412 -134.607224 834.868469
-31.878839 -134.832825 834.467773
-29.326645 -134.892975 834.427429
-26.851000 -134.974365 834.293640
-24.335434 -135.027206 834.096558
-21.787642 -135.126266 833.924622
-19.352077 -135.109848 833.836243
-16.904398 -134.955811 833.762085
-14.487058 -134.841873 833.705444
-12.205866 -135.190048 833.650391
-9.545183 -134.288422 833.919006
-35.955799 -132.853531 835.158936
-34.185219 -132.712875 835.158325
-31.597923 -132.592133 835.110657
-29.278515 -132.406555 835.095093
-26.733004 -132.480911 834.923279
-24.218536 -132.501968 834.801758
-21.736568 -132.577011 834.679443
-19.208176 -132.615448 834.632080
-16.716866 -132.722443 834.438354
-14.283640 -132.844650 834.185242
-11.750083 -132.896515 833.966858
-9.321626 -132.878860 833.899841
-6.618388 -132.638657 833.892639
-4.369812 -132.395691 833.949707
-2.056253 -132.323120 833.972290
1.126671 -132.197433 833.978088
-28.541222 -130.888351 835.413635
-26.331360 -130.563339 835.316284
-24.011705 -130.380066 835.347046
-21.613192 -130.275940 835.326477
-19.199545 -130.298813 835.208801
-16.707537 -130.316132 834.961731
-14.143536 -130.358078 834.874451
-11.630400 -130.461487 834.754639
-9.242730 -130.508286 834.498291
-6.705447 -130.613434 834.534790
-4.240445 -130.674210 834.359863
-1.756120 -130.607544 834.197266
0.858048 -130.484482 834.075745
3.127634 -130.145889 834.062866
5.296074 -130.426300 834.141663
9.399098 -130.049149 834.230774
15.246846 -130.256470 834.309570
-23.708710 -128.653458 835.508118
-21.352848 -128.453033 835.559143
-19.041958 -128.483002 835.544250
-16.458769 -128.222931 835.422241
-14.253095 -128.426590 835.411560
-11.569573 -128.395462 835.437561
-9.098013 -128.347000 835.319153
-6.585450 -128.240326 835.349854
-4.155674 -128.187134 835.250549
-1.542934 -128.288025 835.265015
0.917829 -128.269440 835.037415
3.369832 -128.333420 835.031067
5.876602 -128.392563 835.057007
8.338651 -128.479919 835.036987
10.880531 -128.608414 834.759583
13.393343 -128.588898 834.684509
15.731024 -128.550049 834.673279
18.017950 -128.480896 834.603394
20.736301 -128.223755 834.574158
23.725733 -128.119629 834.628235
-10.446467 -126.419739 835.846008
-4.497334 -126.261513 836.056396
-1.278712 -126.404831 836.047241
0.859428 -126.293549 836.113586
3.665537 -126.021812 836.030701
6.004766 -125.990570 835.990906
8.470890 -126.069138 835.794922
10.945101 -126.225418 835.549194
13.433002 -126.280136 835.322876
15.882378 -126.354240 835.258118
18.390837 -126.465141 835.101135
20.941641 -126.439690 834.945618
23.257809 -126.516968 834.847229
1.438772 -124.411385 836.278198
3.926267 -124.143387 836.281128
6.238026 -124.004517 836.325806
8.781394 -123.919029 836.296753
11.070057 -123.685425 836.328918
13.504707 -123.758453 836.147156
15.945417 -123.820076 835.922485
18.509104 -123.840141 835.828430
21.038521 -123.961609 835.530273
23.500431 -124.089699 835.469849
9.718798 -122.070320 836.466003
11.107827 -121.950562 836.544983
13.862043 -121.835411 836.418945
16.219276 -121.741585 836.402039
18.605368 -121.635818 836.368103
21.043531 -121.515869 836.264221
23.595278 -121.661819 836.198364
24.992434 -120.823311 836.494446
17.328199 -119.002884 836.686096
19.811008 -120.157211 836.793579
21.547203 -119.610565 836.564270
23.967482 -119.728745 836.705750
25.007307 -119.403885 836.415894
24.527485 -117.859062 836.905396
-340.030701 -17.542574 825.594238
-340.154053 -14.355107 823.857666
-340.093170 -12.135607 824.014587
-340.209534 -10.740889 823.838928
-313.449432 17.945370 825.493896
-311.603088 17.348284 825.403442
-309.347168 17.492144 825.744629
-306.844147 17.481752 825.165222
-304.430908 17.320461 825.696411
-301.814117 17.085596 825.972046
-299.497894 17.268019 826.219727
-297.664581 17.269253 826.368408
-313.429657 18.464354 825.420105
-311.958191 18.514286 824.752075
-309.140778 18.530346 824.827332
-306.817169 18.393314 824.692261
-304.296692 18.592369 824.799683
-302.003021 18.296810 824.832947
-299.250641 18.267876 824.955688
-297.539581 18.468090 824.983276
-313.293152 42.398102 824.038818
-311.450287 42.155598 824.289673
-308.458252 41.355343 823.919739
-305.754120 42.065685 824.269958
-303.613831 42.178944 824.480591
-301.509735 42.030739 824.665222
-299.576782 42.467369 824.353333
-312.963104 43.330414 825.246643
-311.809479 43.544701 825.599731
-305.423767 43.175758 825.065247
-304.101990 43.429703 825.286560
-301.129730 43.126892 824.784180
-299.384308 43.167252 824.530518
-277.434479 -160.822952 828.896790
-275.431671 -160.970718 829.043396
-272.918030 -161.007339 829.135254
-270.277008 -160.963913 829.055054
-267.928284 -160.995041 829.044312
-265.565277 -160.994522 829.112976
-263.003876 -161.033966 829.239685
-222.409760 -162.931061 830.452209
-220.552094 -162.701340 830.755371
-284.553802 -158.321213 828.801819
-282.619232 -158.588058 829.219177
-280.145020 -159.094299 829.515869
-277.819153 -159.359756 830.121094
-275.287659 -159.528107 830.442078
-272.755310 -159.555664 830.360168
-270.198853 -159.469849 830.355225
-267.657806 -159.499741 830.208069
-265.201752 -159.565521 830.208496
-262.759521 -159.626801 830.152161
-260.346802 -159.604004 830.157349
-257.840576 -159.667358 830.198547
-255.253235 -159.773315 830.166748
-252.635605 -159.877213 830.194641
-250.247208 -159.827621 830.322876
-247.667282 -159.907608 830.299988
-245.326263 -159.928619 830.314148
-242.842865 -160.070282 830.196716
-240.361298 -160.111572 830.228638
-237.639481 -160.173187 830.325867
-235.166931 -160.154541 830.465393
-232.709061 -160.328949 830.410950
-230.291763 -160.448990 830.540100
-227.805664 -160.511490 830.534485
-225.446579 -160.651260 830.549805
-222.645813 -160.962082 830.676575
-220.139038 -161.134125 830.881897
-217.744781 -161.160507 831.142212
-215.243576 -160.873993 831.467957
-212.817551 -160.724472 831.812927
-210.404236 -160.599640 832.296204
-208.605759 -160.485809 832.657349
-286.634338 -156.011566 829.046204
-285.073151 -156.571640 829.909912
-282.753845 -157.254776 830.434204
-280.545227 -157.579895 830.782104
-271.423004 -157.998688 831.295410
-267.838196 -158.119003 831.385315
-265.127625 -158.134796 831.358826
-262.679108 -158.074112 831.273621
-260.273529 -158.084564 831.305725
-257.720703 -158.208893 831.385437
-255.240768 -158.281906 831.210510
-252.626556 -158.309372 831.303467
-250.085556 -158.225281 831.442505
-247.645615 -158.420517 831.391357
-245.101105 -158.365875 831.437744
-242.781219 -158.437805 831.505920
-240.330078 -158.431213 831.522278
-237.800797 -158.564743 831.463928
-235.263962 -158.452621 831.656311
-232.653000 -158.486801 831.710938
-230.149429 -158.588501 831.660461
-227.690552 -158.566010 831.709167
-225.250641 -158.652512 831.812866
-222.793900 -158.669952 831.841125
-220.313034 -158.731003 831.952820
-217.727524 -158.799530 831.973938
-215.182907 -158.792282 832.158813
-212.649841 -158.854813 832.224976
-210.168259 -158.967285 832.304504
-207.699112 -159.087433 832.547546
-205.300797 -159.023773 832.781738
-202.759796 -158.747345 832.962708
-200.422165 -158.590393 833.136353
-198.078354 -158.393692 833.284607
-196.029312 -158.194397 833.384705
-287.025360 -154.472336 830.104919
-285.909363 -154.880814 830.600098
-231.972427 -156.909790 832.422546
-225.230225 -157.047607 832.534790
-222.227966 -157.172195 832.552124
-220.322113 -157.226562 832.694336
-217.925003 -157.396866 832.741882
-214.893463 -157.362457 832.762390
-212.395065 -157.355347 832.761780
-210.250763 -157.421799 832.815063
-207.675003 -157.606674 832.957214
-204.892273 -157.655640 833.074158
-202.728561 -157.650482 833.021606
-200.246506 -157.711823 833.130920
-197.918365 -157.443024 833.231018
-195.924545 -157.487823 833.350647
-193.888260 -157.221436 833.471802
-170.233658 -154.570755 834.119141
-164.952469 -154.526184 834.228760
-160.419479 -154.522186 834.025146
-164.577957 -154.081268 834.302063
-161.581161 -154.015335 834.375610
-160.136139 -153.645798 834.340759
-157.660568 -153.644211 834.431091
-154.922180 -153.128387 834.395508
-152.605072 -153.082932 834.473206
-150.132523 -153.181549 834.514160
-147.625671 -153.054626 834.422852
-145.108047 -153.088409 834.369141
-142.434341 -153.038925 834.245605
-139.954865 -152.962601 834.350464
-137.508728 -153.033142 834.286072
-135.074921 -152.910919 834.122559
-132.668289 -152.998840 834.168823
-155.016357 -151.951172 834.434937
-152.235260 -151.757385 834.535461
-149.947098 -151.665604 834.569824
-147.578110 -151.672012 834.536255
-144.971451 -151.420746 834.503296
-142.381683 -151.251785 834.500610
-139.935898 -151.181793 834.445618
-137.474213 -151.349533 834.321716
-135.008499 -151.446503 834.260193
-132.569427 -151.594269 834.170227
-130.061111 -151.681335 834.148315
-127.509758 -151.714706 834.126160
-124.946190 -151.707733 834.070435
-122.437057 -151.709869 833.880981
-120.042763 -151.688751 833.826172
-117.521881 -151.694641 833.853088
-115.108559 -151.743439 833.780823
-112.564926 -151.740158 833.826172
-110.038132 -151.766541 833.609741
-107.244270 -151.879120 833.576782
-105.994492 -152.034454 833.551086
-102.464043 -152.347733 833.658691
-101.049774 -152.222870 833.677246
-98.565331 -152.325943 833.790955
-141.533173 -149.644302 834.834656
-139.731796 -149.589539 834.852417
-137.321411 -149.376846 834.829468
-134.927582 -149.296890 834.814514
-132.339264 -149.230804 834.698425
-129.909805 -149.162247 834.768555
-127.443054 -149.239929 834.652039
-124.942467 -149.277527 834.534546
-122.427071 -149.345184 834.488586
-119.886688 -149.365295 834.361877
-117.368233 -149.485748 834.305603
-114.924339 -149.557709 834.107483
-112.436241 -149.690903 833.971863
-109.884598 -149.682373 833.959351
-107.343636 -149.525070 833.807495
-104.891190 -149.529282 833.729126
-102.556335 -149.497009 833.710938
-100.084229 -149.088242 833.667603
-98.143456 -149.160217 833.705322
-129.443726 -147.648209 835.253052
-127.182259 -147.427963 835.238892
-124.768776 -147.398865 835.128052
-122.529541 -147.216095 835.215454
-119.855217 -146.985840 835.109497
-117.416351 -147.004929 835.062195
-114.809723 -146.995010 834.953979
-112.291794 -147.154251 834.658203
-109.839638 -147.157654 834.669861
-107.311058 -147.373917 834.481750
-104.808220 -147.435455 834.402283
-102.326691 -147.502274 834.276367
-99.791031 -147.461792 834.141418
-97.341194 -147.620819 834.095947
-94.816681 -147.243301 834.083069
-92.636658 -147.201599 833.993958
-89.962036 -146.980530 834.027710
-87.972763 -146.743103 834.025574
-294.163940 -139.767242 829.799561
-117.252098 -145.510178 835.487671
-114.570663 -145.325653 835.457825
-112.182335 -145.159378 835.471741
-109.742996 -145.008270 835.463196
-107.185028 -144.913849 835.370667
-104.713257 -144.964935 835.302551
-102.267349 -144.990723 835.117004
-99.823082 -145.105423 835.003113
-97.246513 -145.146851 834.842957
-94.667542 -145.190704 834.696716
-92.215515 -145.268707 834.525513
-89.745491 -145.330246 834.521851
-87.291916 -145.352585 834.261841
-84.757729 -145.024582 834.261047
-82.359009 -144.884598 834.292297
-79.954536 -144.575928 834.166260
-108.965515 -143.311295 835.793823
-107.175423 -143.475739 835.781799
-104.530937 -143.281296 835.769226
-102.156975 -143.041016 835.828247
-99.529579 -142.824997 835.643616
-97.122223 -142.739212 835.598145
-94.717369 -142.705780 835.590820
-92.209656 -142.798019 835.366455
-89.642570 -142.868088 835.232666
-87.109901 -143.007950 835.079590
-84.683586 -143.084412 834.860046
-82.168678 -143.176239 834.758728
-79.575897 -143.053391 834.622192
-77.190956 -143.043488 834.516113
-74.600891 -143.222992 834.534668
-72.516228 -142.835114 834.507812
-68.530823 -143.273666 834.600220
-96.480141 -140.925842 836.035767
-93.919426 -140.969513 836.166565
-92.010216 -140.649368 836.067444
-89.474258 -140.611176 835.980835
-87.120880 -140.520401 835.878540
-84.657867 -140.605316 835.727478
-82.088448 -140.612335 835.601013
-79.582283 -140.716843 835.313354
-77.123802 -140.792892 835.301758
-74.608383 -140.898666 835.113098
-72.072151 -140.917679 834.980469
-69.607903 -140.878799 834.919617
-67.101982 -140.975113 834.791626
-64.670547 -140.683533 834.714783
-61.953453 -140.347122 834.707642
-88.806610 -138.956924 836.282227
-86.955765 -138.779572 836.325867
-84.427162 -138.674133 836.275085
-81.941948 -138.268509 836.222229
-79.548378 -138.280655 836.143738
-77.007309 -138.273666 836.091553
-74.488419 -138.316360 835.890808
-72.029526 -138.425156 835.770386
-69.517372 -138.481949 835.716064
-67.012703 -138.687057 835.375122
-64.471939 -138.726196 835.236938
-61.957886 -138.742859 835.107117
-59.507050 -138.649628 835.014648
-57.065964 -138.677902 834.928833
-55.317356 -138.264648 834.959778
-52.133377 -138.086609 835.002258
-78.887405 -136.475159 836.491394
-77.038101 -136.685791 836.495239
-74.445641 -136.189270 836.445862
-71.984444 -136.238449 836.480286
-69.441772 -136.086807 836.338684
-66.878654 -136.148193 836.209595
-64.448196 -136.214996 835.947021
-61.996143 -136.289062 835.877319
-59.429497 -136.365448 835.661682
-56.879368 -136.423996 835.491760
-54.425449 -136.422302 835.388794
-52.057869 -136.545197 835.229797
-49.418915 -136.149643 835.261475
-47.190853 -136.040726 835.242310
-43.461231 -135.764359 835.150635
-71.821129 -134.562363 836.725342
-69.554466 -134.321609 836.755493
-66.890694 -134.092255 836.718628
-64.363419 -133.957733 836.652649
-61.785667 -133.843094 836.556763
-59.405460 -133.859497 836.396179
-56.882114 -133.918045 836.244019
-54.494057 -134.089050 835.947815
-51.933048 -134.208649 835.890320
-49.342682 -134.192307 835.714722
-46.827255 -134.301224 835.585449
-44.489777 -134.293640 835.474243
-41.753838 -134.113235 835.432495
-39.668060 -133.927353 835.407166
-37.323376 -133.700470 835.396484
-64.233376 -131.958023 836.968506
-61.792294 -131.708084 836.992310
-59.283764 -131.872498 836.928589
-56.721085 -131.576584 836.889465
-54.300228 -131.630051 836.733704
-51.810555 -131.593048 836.617188
-49.298050 -131.724106 836.413330
-46.782341 -131.764648 836.257202
-44.259655 -131.839859 836.126221
-41.812096 -131.948380 835.967285
-39.266563 -132.080414 835.887878
-36.964756 -132.066177 835.642212
-34.344387 -131.872742 835.594543
-32.082966 -131.687271 835.554626
-28.363396 -131.588928 835.599304
-27.289928 -131.453369 835.627625
-57.784931 -129.896439 837.049316
-53.949615 -129.776901 837.151550
-51.780865 -129.575806 837.072327
-49.229824 -129.452179 837.091675
-46.718231 -129.232788 836.899780
-44.263969 -129.273041 836.790405
-41.718464 -129.470810 836.566650
-39.248341 -129.534958 836.461975
-36.748962 -129.620972 836.268494
-34.204105 -129.663666 836.142700
-31.712770 -129.771851 836.040649
-29.315910 -129.801117 835.870422
-26.917215 -129.488770 835.917603
-24.588482 -129.361938 835.798584
-22.422985 -129.342911 835.726257
-46.615685 -127.637527 837.309021
-43.999718 -127.203758 837.294189
-41.632877 -127.142479 837.200134
-39.103691 -127.066719 837.155945
-36.689381 -127.067352 836.981934
-34.189590 -127.173935 836.873291
-31.734211 -127.217522 836.726562
-29.148708 -127.355972 836.753296
-26.637182 -127.317543 836.470642
-24.170980 -127.465599 836.206665
-21.786819 -127.407005 836.188538
-19.185629 -127.284485 836.356201
-16.908806 -127.150459 836.330017
-14.002631 -127.140129 836.404846
-11.768559 -127.277588 836.507202
-9.144533 -127.211304 836.332031
-6.811944 -127.001472 836.321106
-3.205062 -127.089493 836.394653
-2.313860 -127.122429 836.415344
-0.020945 -127.197723 836.396179
-38.573322 -125.681610 837.567322
-36.818237 -125.600945 837.502930
-34.221687 -125.784485 837.514954
-31.514814 -125.649223 837.537598
-29.049246 -125.562340 837.652893
-26.522982 -125.482239 837.715576
-24.191311 -125.321815 837.679504
-21.605972 -125.109566 837.519653
-19.153946 -125.219193 837.310242
-16.628380 -125.335449 837.280396
-14.088074 -125.408440 837.226685
-11.539227 -125.459488 837.000122
-9.027923 -125.508659 836.782166
-6.510673 -125.654106 836.807739
-4.060206 -125.444984 836.580750
-1.780659 -125.551155 836.613525
0.992797 -125.425209 836.513794
2.917175 -125.427650 836.548706
5.248002 -125.504631 836.467834
-23.873278 -123.758636 837.929199
-21.213064 -123.452415 837.981750
-18.874937 -123.106323 837.972229
-16.574358 -123.060837 837.890320
-14.001474 -123.050209 837.866272
-11.529871 -122.954605 837.617798
-9.009350 -123.007355 837.679565
-6.469376 -123.109383 837.458374
-3.922361 -123.235168 837.123230
-1.460448 -123.318558 837.114563
0.988238 -123.405304 836.989136
3.382568 -123.449699 836.699219
5.822506 -123.218018 836.744873
8.244544 -123.196037 836.767151
10.674977 -123.770721 836.646301
-16.420496 -120.692268 838.212341
-13.550396 -120.660210 838.306458
-11.621448 -121.215324 838.104736
-8.876919 -120.795914 838.150513
-6.221053 -120.743484 838.158569
-3.966893 -120.658157 837.911621
-1.471835 -120.792709 837.767883
1.041088 -120.869423 837.648621
3.582398 -120.905708 837.512146
6.091818 -121.016243 837.316650
8.571798 -121.132515 837.194397
11.141843 -121.018677 837.070374
13.391816 -120.939224 836.972473
15.835827 -120.690338 836.931885
18.572456 -120.457443 837.067627
-9.140195 -118.904869 838.426514
-5.905930 -118.810516 838.393616
-3.809927 -118.676979 838.390930
-1.281919 -118.455055 838.421082
1.226015 -118.380440 838.351868
3.673840 -118.350334 838.213684
6.173972 -118.502136 837.973389
8.654820 -118.580208 837.743896
11.159225 -118.537331 837.664673
13.657305 -118.727554 837.489624
16.165087 -118.841148 837.326538
18.662350 -118.892426 837.214539
20.913303 -118.611404 837.113708
23.611790 -118.762886 837.147217
25.202503 -118.027893 837.148987
-0.932870 -116.028320 838.644226
1.351532 -116.780495 838.571472
3.549230 -116.614616 838.649048
6.096179 -116.699951 838.576538
8.647733 -116.585091 838.272827
11.114210 -116.678429 838.203369
13.619620 -116.738899 838.155823
16.133959 -116.937431 838.044617
18.647684 -117.117470 837.945984
21.226345 -117.003036 838.124268
23.712706 -117.146706 837.963440
25.394382 -117.320740 838.090088
-340.084351 -16.511202 826.842041
-340.031433 -14.597062 826.972717
-339.977509 -12.103001 827.357910
-313.652740 15.606984 828.745178
-311.215332 15.529416 828.888489
-313.441315 16.720074 827.239380
-312.419250 16.520123 827.252136
-309.048889 16.470642 827.711670
-307.028046 16.655373 827.396912
-304.093048 16.342445 827.415771
-302.244507 16.124514 827.432068
-299.441223 16.133747 827.839172
-297.728729 16.272797 827.939148
-310.555176 43.661362 826.309326
-303.874115 44.719032 827.371094
26.620483 91.848305 837.612122
27.801285 91.685448 837.806152
30.957483 90.693420 837.937683
33.166187 90.652550 838.147339
28.543619 92.191566 837.975281
31.037395 92.234314 837.984436
32.774773 92.225815 837.876831
-277.552765 -158.184738 831.360046
-275.516602 -158.357788 831.343994
-273.299835 -158.368073 831.370972
-270.733276 -158.390945 831.410767
-284.367035 -155.565887 831.180359
-282.390900 -156.059433 831.613464
-280.043488 -156.432999 831.975037
-277.672363 -156.783401 832.406494
-275.220032 -156.886719 832.590393
-272.769318 -156.949509 832.544189
-270.299347 -156.989151 832.489075
-267.798401 -157.031754 832.426453
-265.215332 -156.979492 832.353088
-262.639221 -156.863449 832.491028
-260.143005 -156.883514 832.321777
-257.725983 -156.972382 832.421387
-255.235779 -156.983475 832.490967
-252.855209 -157.000259 832.452148
-250.262756 -157.006058 832.540955
-247.677521 -157.101807 832.479187
-245.282684 -157.089310 832.530029
-242.561707 -157.109146 832.544983
-240.196228 -157.111038 832.583801
-237.884293 -157.354919 832.443787
-235.300049 -157.177795 832.521240
-233.153534 -157.346390 832.537659
-230.355026 -157.366074 832.736633
-227.718414 -157.417999 832.573853
-225.033035 -157.636597 832.682434
-213.552750 -157.606430 833.163879
-204.131302 -159.705124 833.416382
-203.085052 -159.544189 833.316589
-200.014648 -158.840988 833.439148
-197.598373 -158.572647 833.565430
-195.515610 -158.352158 833.856567
-286.994812 -153.250870 831.342896
-285.145691 -153.961761 831.925781
-282.700592 -154.373764 832.770569
-280.196503 -154.760010 833.129700
-277.964233 -155.283829 833.511108
-275.746735 -155.455475 833.550171
-272.750214 -155.509293 833.613098
-270.195831 -155.451843 833.538391
-267.675751 -155.468414 833.626160
-265.240082 -155.358704 833.537964
-262.754333 -155.473114 833.661438
-260.088837 -155.403229 833.547668
-257.617218 -155.438766 833.688904
-255.087463 -155.408783 833.670288
-252.679413 -155.412018 833.630554
-250.217697 -155.407303 833.636475
-247.787003 -155.387970 833.709473
-245.173248 -155.450882 833.657410
-242.648209 -155.419662 833.767456
-240.107605 -155.466614 833.748413
-237.613144 -155.592194 833.659851
-235.201111 -155.763565 833.636841
-232.761154 -155.773422 833.530396
-230.247620 -155.930389 833.480286
-227.690887 -155.996750 833.483765
-225.130539 -155.970612 833.499084
-222.671295 -155.983704 833.472473
-220.130569 -156.143402 833.513733
-217.673157 -156.183044 833.493652
-215.305557 -156.197235 833.512512
-212.841583 -156.170395 833.520081
-210.173965 -156.258408 833.579102
-207.645081 -156.328918 833.575134
-205.193253 -156.402847 833.631348
-202.594513 -156.389175 833.692871
-200.179550 -156.506104 833.690918
-197.611923 -156.254990 833.809875
-195.194672 -156.811691 833.738281
-192.808182 -156.903793 833.780640
-190.360825 -156.836426 834.040039
-187.793152 -156.645157 834.007751
-185.201080 -156.573517 834.139221
-182.672089 -156.491119 834.476013
-180.248825 -156.412949 834.423401
-287.416595 -151.458038 832.226624
-285.777771 -152.215286 832.787292
-239.647705 -154.153625 834.520081
-237.888123 -154.112045 834.583618
-234.977341 -154.241058 834.615234
-232.804413 -154.104233 834.665588
-230.160706 -154.160538 834.710388
-227.665787 -154.144989 834.645874
-225.287628 -154.027588 834.684875
-222.748734 -154.198685 834.680542
-220.131393 -153.991547 834.685913
-217.486084 -154.032822 834.756836
-215.106232 -153.987427 834.659851
-212.580002 -153.960236 834.628235
-210.122482 -153.980606 834.739868
-207.695999 -154.004578 834.703552
-205.193100 -154.121933 834.718140
-202.641205 -154.157455 834.617432
-200.103653 -154.214600 834.591187
-197.585007 -154.269272 834.604736
-195.088898 -154.375656 834.551453
-192.652359 -154.468719 834.512268
-190.202652 -154.564377 834.480164
-187.745193 -154.688660 834.519836
-185.156799 -154.829041 834.513733
-182.570709 -154.879242 834.481628
-180.037170 -155.003723 834.383606
-177.572998 -155.096497 834.462402
-175.112701 -155.000336 834.466003
-172.678299 -154.888275 834.502258
-170.231247 -154.794083 834.476013
-167.761276 -154.766525 834.610718
-165.317078 -154.666153 834.538025
-162.748825 -154.662827 834.680298
-161.053467 -154.580597 834.492126
-288.969208 -148.238083 832.716614
-288.245636 -149.541855 832.732239
-209.683777 -152.397598 835.468933
-207.250870 -152.236115 835.454529
-204.836319 -152.368088 835.513977
-202.641922 -152.368683 835.452332
-200.136200 -152.335373 835.501465
-197.768463 -152.249176 835.488708
-195.112381 -152.102356 835.614868
-192.425400 -152.071609 835.529541
-190.002914 -152.139267 835.547791
-187.508575 -152.207413 835.457275
-185.106323 -152.314758 835.345581
-182.651657 -152.405655 835.279968
-180.152420 -152.524765 835.110779
-177.573105 -152.549316 835.082886
-175.007568 -152.607300 835.098877
-172.513412 -152.711807 835.023804
-170.073837 -152.769424 834.896179
-167.623306 -152.841858 834.853699
-165.144302 -152.852539 834.735901
-162.633911 -153.004852 834.622498
-159.960007 -152.791290 834.732666
-157.447952 -152.894257 834.655273
-155.600311 -153.415924 834.621094
-152.803497 -154.099136 835.047119
-150.413376 -152.509552 834.764465
-291.811096 -145.537552 831.970154
-290.254913 -145.931656 832.831177
-191.876999 -150.580460 835.906921
-189.730713 -150.728973 835.964905
-186.992447 -150.748642 836.088501
-184.780807 -150.717300 836.086914
-182.360535 -150.572830 836.033997
-180.019119 -150.420120 836.057922
-177.555389 -150.305420 836.022949
-175.077530 -150.212875 835.984863
-172.542542 -150.246689 835.912781
-169.933548 -150.241669 835.777344
-167.443466 -150.329590 835.609680
-164.985794 -150.408646 835.604065
-162.513672 -150.522186 835.468506
-160.025787 -150.568924 835.347229
-157.444809 -150.636078 835.246460
-154.936691 -150.768555 835.042480
-152.518143 -150.594757 835.070068
-150.045319 -150.451096 835.027222
-147.529678 -150.375900 835.059937
-145.131805 -150.208099 834.990662
-142.828110 -150.386795 835.021912
-291.928467 -143.986359 832.350281
-290.966431 -144.862656 832.878662
-174.439346 -148.823959 836.417114
-172.373840 -148.756866 836.382874
-169.894287 -148.666443 836.442566
-167.484329 -148.514252 836.422119
-164.863220 -148.224106 836.384827
-162.296036 -148.094391 836.319580
-159.863007 -148.135361 836.321594
-157.448975 -148.101654 836.169800
-154.979187 -148.188416 836.070679
-152.480530 -148.377533 835.816162
-149.894592 -148.431595 835.710571
-147.365463 -148.508316 835.671387
-144.910934 -148.577881 835.468506
-142.477631 -148.631241 835.436523
-140.060013 -148.536362 835.333496
-137.604324 -148.371735 835.262329
-134.921524 -148.272217 835.261780
-132.764114 -148.018646 835.324890
-130.862839 -147.950485 835.236450
-293.629913 -140.844330 831.333252
-292.950714 -141.294708 832.164307
-158.835754 -146.324753 836.740295
-157.094177 -146.455536 836.833862
-154.855164 -146.346268 836.794922
-152.206268 -146.274185 836.719421
-149.929352 -146.173615 836.626892
-147.405624 -146.105331 836.551880
-144.903702 -146.091995 836.385925
-142.345184 -146.128098 836.325012
-139.811234 -146.201355 836.224304
-137.346588 -146.284760 836.096985
-134.925247 -146.363022 835.939941
-132.348358 -146.518692 835.799316
-129.899124 -146.525269 835.735596
-127.374512 -146.422989 835.709229
-124.837624 -146.308884 835.677124
-122.086090 -146.268860 835.644470
-120.663818 -146.102692 835.652466
-293.908600 -138.463318 831.888428
-293.255981 -139.691833 832.875427
-146.861679 -144.365524 837.115967
-144.740631 -144.341370 837.110840
-142.237915 -144.223068 837.042786
-139.853928 -143.896469 837.094849
-137.261826 -143.892609 837.077454
-134.763092 -143.872894 837.001282
-132.286087 -143.973999 836.777771
-129.749924 -144.082169 836.628906
-127.296837 -144.228668 836.494507
-124.803711 -144.283401 836.349121
-122.282982 -144.351562 836.303528
-119.731102 -144.377701 836.208435
-117.247894 -144.264343 836.028198
-114.868690 -144.160324 835.974609
-112.401413 -143.895660 835.992798
-109.988487 -143.831635 835.963745
-107.648575 -143.834366 835.925720
-293.750916 -137.028809 832.435486
-136.823837 -142.451920 837.431396
-134.755219 -142.391617 837.426697
-132.318100 -142.090576 837.462585
-129.711838 -142.105698 837.416809
-127.053421 -141.771973 837.380371
-124.667473 -141.772812 837.264771
-122.212845 -141.845276 837.200317
-119.763542 -141.913544 837.108459
-117.290863 -141.993408 836.859680
-114.742775 -142.039307 836.779114
-112.184395 -142.056229 836.636658
-109.678856 -142.186951 836.440613
-107.254967 -142.214478 836.267151
-104.877098 -142.046143 836.264648
-102.345734 -141.820602 836.248352
-100.113724 -141.753998 836.196106
-97.639832 -141.542633 836.245850
-124.349968 -140.392105 837.793579
-121.894035 -140.220901 837.752075
-119.466721 -139.900192 837.668213
-117.121147 -139.697311 837.693115
-114.653305 -139.554779 837.584351
-112.229568 -139.668335 837.467102
-109.741272 -139.727203 837.366638
-107.183899 -139.899811 837.196655
-104.634682 -139.885132 836.886108
-102.139618 -139.985138 836.757996
-99.693970 -140.052628 836.654358
-97.238434 -140.010284 836.515320
-94.708870 -140.066544 836.498840
-92.233444 -139.614319 836.530029
-89.862526 -139.591476 836.524048
-87.191734 -139.748032 836.490540
-116.008110 -138.246796 837.714050
-114.008209 -137.861572 838.067932
-111.734650 -137.893494 837.935791
-109.475815 -137.535980 837.989807
-107.099045 -137.445877 837.855469
-104.654037 -137.418411 837.735352
-102.118591 -137.493149 837.623718
-99.579620 -137.514450 837.447998
-97.065010 -137.582062 837.349243
-94.581848 -137.701065 837.167236
-92.085678 -137.876923 837.032166
-89.565857 -137.905197 836.826782
-87.031517 -137.827301 836.802002
-84.592392 -137.710220 836.714111
-82.518532 -137.515457 836.673401
-79.305992 -137.311478 836.682495
-106.289886 -135.826370 838.248535
-104.457771 -135.554306 838.253784
-102.041153 -135.415939 838.168640
-99.477722 -135.229095 838.182678
-97.057358 -135.104843 838.090942
-94.523888 -135.192780 837.940979
-91.947754 -135.275757 837.805664
-89.439537 -135.401443 837.617004
-87.024994 -135.478928 837.426514
-84.534920 -135.582306 837.301025
-82.002563 -135.631592 837.169617
-79.627266 -135.476517 836.991760
-76.860435 -135.590164 837.013000
-74.764786 -135.311813 836.842529
-72.121155 -135.208160 836.909546
-100.518997 -133.580566 838.477234
-96.318817 -133.472717 838.493042
-94.434906 -133.239075 838.448486
-91.902122 -133.108612 838.418213
-89.429146 -132.880112 838.264099
-86.893280 -132.952423 838.207397
-84.416931 -132.963120 838.025085
-81.848976 -133.131317 837.776917
-79.419510 -133.150955 837.606018
-76.982430 -133.318115 837.495422
-74.358650 -133.393112 837.403076
-71.836998 -133.332962 837.204895
-69.329262 -133.274567 837.138611
-67.032082 -132.989166 837.143494
-64.723511 -132.710815 837.082581
-62.506374 -132.863327 837.133545
-90.851700 -131.468140 838.718750
-89.343056 -131.321960 838.685120
-86.836739 -131.105804 838.667786
-84.234886 -130.933060 838.635071
-81.771233 -130.775787 838.437378
-79.301430 -130.744461 838.411377
-76.834106 -130.788940 838.172913
-74.350830 -130.883957 838.092957
-71.837440 -130.987198 837.923035
-69.370323 -130.994705 837.712585
-66.866417 -131.075638 837.625427
-64.314751 -131.035416 837.516907
-61.845100 -131.051376 837.346008
-59.388809 -130.752792 837.372070
-57.161335 -130.901642 837.298279
-53.982246 -130.430176 837.423401
-83.437286 -129.026245 838.836243
-81.618240 -128.890320 838.898438
-79.240257 -128.792984 838.886841
-76.861732 -128.633423 838.806580
-74.253418 -128.616470 838.678894
-71.783775 -128.388382 838.609253
-69.279968 -128.579514 838.469910
-66.802536 -128.695129 838.286987
-64.338058 -128.772690 838.131409
-61.821053 -128.854279 837.997437
-59.279816 -128.857315 837.779968
-56.701233 -128.896255 837.648193
-54.393085 -128.765091 837.562744
-51.879879 -128.558945 837.520630
-49.515903 -128.366730 837.499817
-47.727715 -128.317322 837.621033
-73.363029 -126.720596 839.077087
-71.694077 -126.445473 839.066467
-69.049438 -126.281837 839.014526
-66.644936 -126.155518 838.921143
-64.170525 -126.197365 838.760803
-61.676373 -126.258629 838.743958
-59.220493 -126.379189 838.407349
-56.740295 -126.400848 838.375061
-54.255970 -126.532402 838.125793
-51.622490 -126.687088 837.981506
-49.131458 -126.779480 837.928284
-46.776943 -126.557663 837.731873
-44.531105 -126.418777 837.745728
-41.742496 -126.047844 837.824707
-39.945061 -126.012238 837.756592
-68.581421 -124.507675 839.158630
-66.130463 -124.152840 839.248718
-64.465813 -124.305389 839.242981
-61.641991 -124.365952 839.239258
-59.103191 -124.311661 839.070740
-56.606079 -124.226135 839.053223
-54.045010 -124.382767 839.031494
-51.638992 -124.367599 838.904663
-49.128864 -124.235474 838.870178
-46.583878 -124.330887 838.862122
-44.064816 -124.419052 838.830017
-41.614033 -124.482368 838.645325
-39.195736 -124.458344 838.619263
-36.683540 -124.432190 838.568909
-34.146244 -124.516335 838.538330
-31.610161 -124.398506 838.452698
-29.098766 -124.250107 838.360596
-26.798677 -124.280174 838.290833
-24.188118 -124.220306 838.173157
-22.706379 -124.198799 838.301208
-48.752026 -122.533157 839.722778
-46.651810 -122.235138 839.736938
-43.922646 -122.243942 839.768433
-41.569866 -122.081444 839.692993
-39.050499 -122.009857 839.561340
-36.542347 -122.073067 839.384094
-34.064251 -122.164963 839.271118
-31.544912 -122.277893 839.208679
-29.060717 -122.294533 838.884277
-26.506008 -122.329338 838.796814
-24.000975 -122.420975 838.624634
-21.566158 -122.420158 838.448608
-19.267557 -122.279022 838.422058
-16.654156 -121.890312 838.404846
-14.171668 -122.003418 838.455627
-12.646929 -121.734077 838.455750
-43.935997 -120.498024 839.962402
-41.555828 -120.256821 839.978149
-39.161190 -120.248810 839.862854
-36.418751 -120.024956 839.948608
-34.019291 -119.768990 839.914490
-31.516239 -119.832787 839.679993
-28.965530 -119.877075 839.559326
-26.482563 -119.983902 839.281677
-23.987434 -120.016129 839.253113
-21.502480 -120.114891 839.079468
-19.001797 -120.150223 838.896118
-16.495934 -120.171349 838.773132
-14.083489 -120.199799 838.685730
-11.421150 -120.031563 838.729797
-9.165117 -119.790283 838.612122
-7.069005 -119.813614 838.833191
-37.229294 -117.560570 840.120544
-34.155598 -118.380539 840.179321
-31.211905 -117.683769 840.174133
-28.762289 -117.554893 839.958984
-26.474138 -117.457901 840.017700
-23.942921 -117.575829 839.893188
-21.373718 -117.665718 839.672119
-18.915995 -117.767479 839.585144
-16.455355 -117.852707 839.418396
-13.914612 -117.931061 839.354004
-11.391572 -117.959808 839.165466
-8.864295 -117.907730 839.037292
-6.550328 -117.892670 838.884216
-4.032388 -117.767776 838.854614
-1.833773 -117.581215 838.833191
0.469099 -117.491524 838.860168
-25.761696 -115.628143 840.230042
-23.761538 -115.595924 840.270447
-21.355814 -115.368309 840.207092
-18.821493 -115.300468 840.191162
-16.354263 -115.289810 840.141357
-13.836293 -115.334930 840.029053
-11.277948 -115.473808 839.867798
-8.836171 -115.512962 839.746643
-6.357846 -115.601982 839.643860
-3.816370 -115.701157 839.565369
-1.352265 -115.799957 839.566101
1.122445 -115.780739 839.512329
3.692758 -115.643600 839.674133
6.161110 -115.589455 839.685913
8.474658 -115.733086 839.969055
11.193266 -115.789612 840.477783
13.721407 -115.875168 840.179749
16.295254 -116.107697 840.275879
18.744925 -116.416000 840.335022
20.933651 -116.320930 840.664368
23.513704 -116.355431 840.864319
26.068932 -116.643410 840.793457
-17.961962 -113.661522 840.525940
-10.827015 -113.912880 840.603455
-339.925659 -14.807741 830.382996
-338.817078 8.438731 830.286926
-313.380920 14.938151 830.184204
-312.997681 15.258593 829.586792
-304.268311 15.328540 830.016541
-301.152466 14.893397 830.695984
-299.570435 15.040914 830.560913
-297.941742 14.938527 831.143311
-299.004883 15.483104 829.333069
-297.526764 15.532162 829.724060
-303.966034 45.368206 829.287537
-304.133759 45.734852 829.457764
33.283875 78.885574 840.720093
23.305628 81.999718 840.397888
25.053196 81.408951 840.365417
27.848099 81.563828 840.469177
30.269270 81.290825 840.556763
32.977322 80.801552 840.646790
8.321598 85.254105 839.999878
12.725037 84.484711 840.039429
17.513544 84.874458 840.161194
20.309792 84.235695 840.192749
22.914835 83.760590 840.312988
25.149870 83.582253 840.293579
27.939222 83.498817 840.198059
30.162315 83.498596 840.191772
32.535389 83.221985 840.225708
-6.348504 88.122932 839.472900
-0.978265 87.971893 839.571350
1.039039 87.327461 839.644775
2.870528 87.524200 839.769897
5.272263 87.524742 839.727966
7.499503 87.301399 839.827026
10.462004 87.039551 839.791321
12.891081 86.856133 839.917114
15.353090 86.583237 839.917480
17.803547 86.332787 839.920166
20.193323 86.211456 839.855042
22.790180 86.103119 839.986755
25.357607 85.948997 839.900574
27.781889 85.911797 839.702454
30.329214 85.924889 839.904846
32.574928 85.760643 839.721741
-11.059993 89.793457 839.379211
-10.400990 89.834358 839.392883
-6.716190 89.374603 839.384399
-4.493647 89.904716 839.326294
-1.902569 89.555130 839.427673
0.459382 89.661720 839.504761
3.099720 89.367416 839.584167
5.289270 89.406807 839.532410
7.717172 89.156265 839.493835
10.335686 89.019119 839.569336
12.872530 88.987198 839.478577
15.407875 88.878181 839.449280
17.857473 88.803818 839.394653
20.362995 88.703667 839.376892
22.831373 88.633499 839.251526
25.338827 88.574402 839.281372
27.796143 88.446877 839.214478
30.388767 88.417435 839.327942
32.634899 88.299324 839.192322
-1.199674 90.691406 838.559814
0.805774 90.838966 839.494751
3.112177 90.802979 839.446228
5.389966 90.737671 839.099670
7.975386 90.838661 839.254883
10.488082 90.901146 839.407593
12.900957 90.818634 839.412109
15.400168 90.848991 838.997742
18.010937 90.881096 838.993652
20.564398 90.813255 838.855652
22.979614 90.847878 838.839233
25.391510 90.923798 838.911255
27.930349 90.723145 838.720703
30.472868 90.783707 838.740845
32.606575 90.729111 838.606750
28.927301 92.189926 838.052734
30.532557 92.205925 838.551208
32.100292 92.146706 838.467590
-282.625916 -153.235764 833.733643
-279.989410 -153.592285 834.234009
-277.517426 -154.176041 834.517517
-275.079865 -154.350632 834.586548
-272.644043 -154.303864 834.650391
-270.206329 -154.256271 834.690857
-267.775360 -154.278732 834.650452
-265.333588 -154.168701 834.605896
-262.787231 -154.211166 834.478577
-260.242554 -154.203873 834.500671
-257.598694 -154.198578 834.565613
-255.194412 -154.212982 834.667419
-252.684570 -154.180084 834.590576
-250.256622 -154.190475 834.609985
-247.742889 -154.188980 834.627869
-245.370361 -154.165146 834.723694
-242.792953 -154.175339 834.787720
-240.517288 -154.229767 834.705261
-237.881516 -154.328064 834.813110
-286.587524 -150.527313 833.354126
-285.044128 -151.312210 834.094238
-282.740875 -151.573120 834.862061
-280.343475 -151.823990 835.367920
-277.947418 -152.522186 835.586670
-275.026672 -152.676926 835.824951
-272.389160 -152.759445 835.863831
-270.091705 -152.655716 835.869202
-267.631805 -152.628448 835.861206
-265.198517 -152.549942 835.861755
-262.702637 -152.568085 835.823853
-260.236176 -152.477509 835.755737
-257.736847 -152.498306 835.809692
-255.127914 -152.465851 835.833862
-252.599274 -152.425964 835.828796
-250.069641 -152.550888 835.854919
-247.620316 -152.637695 835.802185
-245.139954 -152.699188 835.725708
-242.732193 -152.779419 835.633667
-240.271713 -152.864090 835.694885
-237.662430 -152.984879 835.485291
-235.110626 -153.005112 835.497192
-232.499649 -152.934143 835.545959
-230.067535 -152.903748 835.531128
-227.642700 -152.907242 835.528381
-225.085785 -152.783356 835.516602
-222.695694 -152.923492 835.470703
-220.376053 -152.732025 835.412903
-217.923325 -152.860916 835.552307
-214.926529 -152.748413 835.484497
-212.854889 -152.740417 835.473511
-210.742691 -152.819565 835.552002
-287.371582 -148.773117 834.131653
-285.419678 -149.394989 835.134277
-283.248779 -150.027618 835.628235
-254.206589 -150.985336 836.726685
-252.802689 -151.015259 836.655579
-250.689499 -151.095703 836.758240
-247.605652 -151.119171 836.873718
-245.085617 -151.163818 836.810364
-242.562103 -151.152191 836.693115
-240.100601 -151.114548 836.803528
-237.705261 -151.121307 836.754150
-235.258026 -151.146271 836.733704
-232.693954 -151.074814 836.774353
-230.104553 -151.148712 836.698486
-227.564529 -151.025146 836.699890
-225.055939 -150.937393 836.664551
-222.558182 -151.028229 836.528748
-220.102936 -151.094559 836.471985
-217.649353 -151.158157 836.397461
-215.149811 -151.257812 836.311401
-212.634598 -151.295029 836.228149
-210.129852 -151.259918 836.162781
-207.624527 -151.210556 836.281738
-205.154922 -151.306549 836.122070
-202.598801 -151.209457 836.171997
-200.148865 -151.268555 836.188660
-197.581894 -151.143997 836.069702
-195.325027 -151.025208 836.087646
-193.182297 -151.237137 836.144531
-188.846909 -151.134399 836.111633
-289.405243 -145.971359 834.185425
-287.934509 -146.634048 835.235779
-224.639587 -149.536407 837.504639
-222.353775 -149.558334 837.478149
-220.019104 -149.329834 837.531067
-217.330597 -149.339645 837.475159
-215.060684 -149.184952 837.461731
-212.534470 -149.127930 837.338623
-210.111877 -149.069550 837.402039
-207.639389 -149.102798 837.344849
-205.058838 -149.197205 837.224487
-202.472534 -149.214447 837.145325
-199.975952 -149.317245 837.001343
-197.497070 -149.407516 836.941528
-195.048904 -149.465012 836.819336
-192.642319 -149.449188 836.795227
-190.106674 -149.566879 836.761353
-187.620483 -149.619293 836.650635
-185.090073 -149.438797 836.661255
-182.555527 -149.312164 836.685303
-179.971909 -149.234390 836.565002
-177.598953 -149.066376 836.635437
-175.784210 -149.018448 836.577759
-291.482269 -143.053940 833.490845
-290.254456 -143.967773 834.510071
-206.666351 -147.708191 838.043396
-205.004364 -147.696411 837.921692
-202.460526 -147.492416 837.956848
-199.877518 -147.462112 837.975708
-197.471466 -147.334396 837.916138
-194.936279 -147.145126 837.888428
-192.397141 -147.176987 837.835266
-189.915009 -147.117386 837.848511
-187.490952 -147.197891 837.691895
-185.038239 -147.261566 837.600342
-182.506393 -147.368301 837.505615
-180.012833 -147.405304 837.356873
-177.468002 -147.465424 837.273804
-174.922287 -147.543701 837.120544
-172.481796 -147.487595 837.077209
-170.061783 -147.450378 836.979736
-167.599716 -147.308517 836.954041
-165.305603 -147.042084 837.102417
-162.931076 -146.989883 836.954285
-160.106735 -147.002060 837.005310
-291.785950 -141.164749 834.327209
-290.700562 -141.622711 835.336914
-191.583984 -145.414413 838.409485
-189.473770 -145.625336 838.423035
-187.157837 -145.531174 838.372559
-184.878937 -145.592239 838.382996
-182.391891 -145.290482 838.366638
-179.945877 -145.181992 838.396362
-177.455688 -145.083496 838.278198
-174.959763 -145.076691 838.209106
-172.379257 -145.092163 838.119873
-169.823257 -145.226685 837.904297
-167.374451 -145.335281 837.805847
-164.904739 -145.439529 837.605530
-162.456985 -145.501083 837.490051
-159.974045 -145.557083 837.375488
-157.423508 -145.342743 837.327454
-154.801788 -145.224655 837.325562
-152.540543 -145.178925 837.275024
-149.771362 -144.918793 837.378784
-147.850052 -144.886398 837.268494
-293.559174 -138.139206 833.132568
-292.550659 -138.839310 834.547729
-176.494522 -143.483047 838.796326
-174.683090 -143.485672 838.891296
-172.340668 -143.278442 838.891602
-169.913925 -143.303253 838.624146
-167.352234 -143.120224 838.704285
-164.834061 -142.972809 838.653198
-162.304489 -142.990448 838.493042
-159.811188 -143.060333 838.377991
-157.334534 -143.141891 838.280334
-154.870667 -143.216736 838.102234
-152.352997 -143.306122 837.970154
-149.812164 -143.342392 837.856506
-147.369308 -143.354797 837.756470
-144.808792 -143.213333 837.645630
-142.416733 -143.187668 837.681396
-139.986008 -142.898056 837.570862
-138.312927 -143.043823 837.583252
-293.525330 -136.857239 833.948853
-293.021606 -136.481827 834.664001
-164.559311 -141.333557 839.171509
-162.198471 -141.311127 839.138062
-159.690445 -141.111053 839.162109
-157.178955 -141.015411 839.029297
-154.585724 -140.831680 839.065063
-152.181763 -140.809418 838.932312
-149.744431 -140.864410 838.912354
-147.304398 -141.005096 838.632629
-144.799789 -141.159821 838.494080
-142.243195 -141.178513 838.390625
-139.737000 -141.216629 838.235535
-137.273239 -141.178223 838.050842
-134.760178 -141.112473 838.082642
-132.292953 -140.886093 837.981628
-129.892960 -140.973602 837.905579
-128.142685 -140.850525 837.938354
-293.464569 -134.937790 834.058411
-154.575089 -139.340851 839.434082
-151.541183 -139.241592 839.455505
-149.586304 -139.171021 839.442932
-146.949615 -138.845535 839.398132
-144.601990 -138.772949 839.295959
-142.192963 -138.705368 839.250916
-139.769272 -138.724365 839.142090
-137.268951 -138.820724 838.998779
-134.696762 -138.854233 838.881897
-132.141052 -138.873901 838.674622
-129.635910 -139.088623 838.443542
-127.197624 -139.179306 838.348755
-124.764458 -139.172943 838.246704
-122.286354 -139.022690 838.220459
-119.881805 -138.700790 838.173889
-117.159241 -138.479919 838.250671
-114.691353 -138.352188 838.128235
-144.220963 -137.247513 839.722900
-141.745346 -137.272278 839.735291
-139.497620 -137.030655 839.711731
-137.098755 -136.683044 839.662720
-134.621246 -136.665375 839.645630
-132.195282 -136.572174 839.490906
-129.691254 -136.634048 839.390869
-127.192276 -136.692139 839.265137
-124.622490 -136.712845 839.140747
-122.084496 -136.807297 838.930542
-119.638626 -136.869614 838.795410
-117.177635 -136.937637 838.597778
-114.780586 -136.866882 838.427002
-112.278526 -136.784058 838.475159
-109.801659 -136.402267 838.435425
-107.250122 -136.246277 838.444580
-134.216599 -135.137650 839.971252
-132.134171 -134.801346 840.022522
-129.607178 -134.878387 839.990234
-127.005569 -134.601059 839.913574
-124.593811 -134.319992 839.863770
-122.095108 -134.317657 839.729980
-119.572136 -134.355698 839.678162
-117.114792 -134.437622 839.387268
-114.570923 -134.548676 839.252686
-112.094658 -134.688309 839.074280
-109.612343 -134.753632 838.848511
-107.075043 -134.778885 838.826111
-104.503403 -134.406891 838.712891
-101.929123 -134.283508 838.667664
-99.759689 -134.209030 838.649658
-124.183289 -132.591690 840.253174
-121.796944 -132.490219 840.222473
-119.477165 -132.111847 840.198059
-116.927002 -132.103119 840.123291
-114.418793 -131.990891 839.956116
-111.932533 -132.161530 839.818909
-109.468788 -132.172119 839.677795
-106.991577 -132.288635 839.489990
-104.545692 -132.360245 839.411316
-102.016525 -132.508301 839.064819
-99.404739 -132.563309 838.970154
-96.996696 -132.543121 838.904297
-94.437401 -132.207779 838.945496
-92.133919 -132.147675 838.834900
-114.223579 -130.175430 840.405518
-111.749008 -130.144562 840.358765
-109.360687 -129.903717 840.324402
-106.936226 -129.810349 840.234680
-104.366791 -129.769363 840.084839
-101.865463 -129.944733 839.869690
-99.405968 -130.061523 839.767822
-96.953270 -130.152115 839.634827
-94.430092 -130.253967 839.447754
-91.938011 -130.254639 839.327637
-89.426994 -130.074951 839.218628
-86.995415 -130.020035 839.081299
-84.707886 -130.135162 839.000122
-82.563499 -129.682648 839.112915
-108.418427 -128.291580 840.539551
