ply
format ascii 1.0
element vertex 783
property float x
property float y
property float z
property float nx
property float ny
property float nz
end_header
-4.659003 -109.067833 852.752441 0.024575 0.288300 -0.950529
-2.091340 -109.096436 852.649292 -0.092297 0.430982 -0.887080
0.405503 -109.054092 852.678345 0.020118 0.314837 -0.929206
1.894903 -109.141487 852.660095 0.102872 0.386967 -0.912445
5.470321 -108.760109 852.788269 -0.014679 0.191513 -0.972142
7.789443 -108.943703 852.644287 0.009094 0.325789 -0.932815
9.879230 -108.973518 852.735413 0.088088 0.317297 -0.927818
12.969963 -108.979652 852.716736 -0.041267 0.266364 -0.960104
15.335262 -108.938301 852.711243 0.024814 0.225131 -0.969382
17.665714 -109.197395 852.748474 0.027560 0.408165 -0.904199
20.338459 -109.078842 852.697021 0.001146 0.320852 -0.938383
22.714071 -109.035637 852.640930 -0.000408 0.333619 -0.931921
25.307938 -108.856865 852.740784 0.005159 0.311219 -0.939683
28.142519 -109.274529 852.677429 -0.042982 0.437074 -0.894907
29.867216 -109.175728 852.695435 0.039521 0.430356 -0.900540
32.632557 -108.979683 852.621338 -0.058436 0.324377 -0.926725
35.338890 -108.704140 852.590637 -0.124313 0.312407 -0.922869
37.880863 -108.205971 852.372375 -0.114858 0.252283 -0.950615
40.366360 -108.144760 852.164124 -0.099733 0.261272 -0.941440
42.844658 -108.086540 851.684448 -0.202299 0.288910 -0.914954
45.241142 -108.024994 850.947083 -0.274713 0.283590 -0.912724
46.932129 -107.494888 850.647705 -0.321859 0.373013 -0.857804
37.315266 -106.563950 852.725769 -0.049776 0.169790 -0.964118
40.353001 -106.127151 852.613525 -0.128003 0.223403 -0.958435
42.839554 -105.648056 852.348755 -0.186078 0.228370 -0.947642
45.342918 -105.582733 851.683289 -0.255753 0.240225 -0.924726
47.622002 -105.489655 850.977966 -0.349883 0.284245 -0.862906
43.096855 -103.789421 852.727661 -0.175017 0.210110 -0.956881
45.336304 -103.184906 852.282349 -0.249853 0.197205 -0.938685
47.853405 -103.087967 851.517212 -0.314576 0.191386 -0.911950
49.495003 -102.949776 850.759399 -0.544009 0.226939 -0.772547
45.793678 -101.099991 852.518677 -0.306869 0.215164 -0.915499
47.754765 -100.584206 852.116760 -0.292593 0.181397 -0.919074
49.989338 -100.502815 850.979736 -0.516744 0.195856 -0.816506
48.092850 -98.236359 852.440308 -0.322338 0.204052 -0.918577
50.293816 -98.052277 851.329468 -0.539171 0.193734 -0.809070
51.688831 -97.391403 850.419922 -0.658154 0.299331 -0.690385
48.707214 -95.774544 852.599426 -0.413271 0.149762 -0.893592
50.232220 -95.558144 851.793457 -0.512694 0.108208 -0.843905
51.799149 -95.486893 850.671265 -0.728354 0.097428 -0.662369
48.607948 -92.108086 852.810059 -0.491636 0.031323 -0.870237
50.339516 -93.083885 851.954468 -0.566300 0.065755 -0.799281
51.860020 -93.112976 850.650452 -0.754029 -0.032116 -0.645923
50.541302 -90.641113 851.963684 -0.660525 0.018986 -0.726676
51.743706 -90.946854 850.711548 -0.809006 -0.020691 -0.574851
50.562279 -88.044922 851.871216 -0.730453 -0.063117 -0.670087
51.694485 -88.843796 850.673279 -0.842892 -0.139961 -0.509371
50.574284 -85.695068 851.702271 -0.837564 -0.058332 -0.507951
50.119926 -83.128815 851.860413 -0.892768 -0.103536 -0.401153
49.823700 -80.703423 851.584351 -0.932374 -0.092258 -0.203201
48.934151 -77.400421 852.509216 -0.955430 -0.095609 -0.096657
49.389900 -78.273872 851.388489 -0.920512 -0.143529 -0.270362
48.717335 -75.464943 851.589111 -0.953456 -0.061166 -0.149885
49.179668 -76.690109 850.580078 -0.840088 -0.234491 -0.485078
48.389404 -73.103012 851.196289 -0.736705 -0.093272 -0.492289
49.523251 -72.729874 850.413513 -0.180860 0.116357 -0.974081
48.132027 -70.562859 851.071167 -0.436810 0.022031 -0.790499
49.616573 -70.810364 850.512634 -0.249140 0.046063 -0.963705
46.435631 -67.042259 852.728760 -0.998513 -0.001028 0.054502
47.807106 -68.059441 851.284973 -0.343289 -0.019384 -0.878313
49.869503 -68.340851 850.656982 -0.253078 0.075350 -0.950662
46.271675 -65.370041 852.125183 -0.674236 -0.049542 -0.641121
47.806244 -65.531822 851.309814 -0.303464 0.083996 -0.938596
49.866508 -65.715775 850.640686 -0.262646 -0.003921 -0.956520
54.505531 -64.721481 850.353210 -0.156445 0.258067 -0.953376
56.647640 -65.082291 850.383606 -0.180918 0.099689 -0.978433
45.954727 -62.975437 852.150391 -0.395485 -0.031052 -0.849075
47.790600 -63.013851 851.445435 -0.319933 0.009765 -0.937748
49.933380 -63.123764 850.718750 -0.287521 0.073006 -0.945320
52.297333 -63.131248 850.417114 -0.001426 0.102981 -0.988290
55.154060 -62.987160 850.408020 -0.026452 0.111766 -0.982899
56.643059 -62.226082 850.350037 -0.125240 0.018841 -0.991947
59.735752 -62.824360 850.366821 0.041276 0.031242 -0.994601
63.063183 -62.231281 850.347351 -0.005275 -0.077018 -0.997016
45.653305 -60.493828 852.296936 -0.357026 0.023788 -0.916458
47.791500 -60.517456 851.491272 -0.290927 0.020254 -0.943557
50.168919 -60.634457 850.814453 -0.215763 0.067167 -0.960234
52.814793 -60.697685 850.598206 0.021705 0.099810 -0.987826
55.108391 -60.716953 850.575134 -0.063519 0.085031 -0.986176
57.537346 -60.401882 850.509705 -0.101810 0.098697 -0.983465
60.275131 -60.304638 850.457886 -0.011624 0.083158 -0.987730
62.760437 -60.502811 850.408264 -0.061735 0.115876 -0.970473
45.480350 -58.019501 852.390564 -0.339536 0.008371 -0.928912
47.793522 -58.022312 851.555969 -0.282945 0.022492 -0.946502
50.281914 -58.043076 851.016113 -0.095115 0.084699 -0.982507
52.764626 -58.077126 850.773132 -0.042864 0.080273 -0.986940
55.238537 -58.127083 850.736450 -0.034193 0.090883 -0.981954
57.653168 -58.149158 850.546570 -0.063321 0.062786 -0.986379
60.314232 -58.106049 850.585449 -0.013890 0.086546 -0.982650
62.793468 -58.091148 850.537842 0.002184 0.102270 -0.987154
64.841240 -57.809624 850.527405 -0.153389 0.116222 -0.974028
43.925915 -56.311245 852.716736 -0.321625 0.000181 -0.943917
45.512737 -55.655190 852.403687 -0.304869 0.003205 -0.938177
47.791439 -55.522133 851.545776 -0.258881 -0.002175 -0.948203
50.270164 -55.501034 851.199402 -0.032323 0.045632 -0.978407
52.737598 -55.521355 851.049072 -0.074559 0.086324 -0.984026
55.243889 -55.481400 850.847412 -0.053380 0.023695 -0.985588
57.754211 -55.537769 850.827393 -0.010177 0.091513 -0.978656
60.215866 -55.602802 850.798218 -0.059935 0.115999 -0.978250
62.732075 -55.603619 850.677795 -0.016523 0.074637 -0.982475
65.200272 -55.515396 850.571716 -0.080587 0.064282 -0.987100
67.303139 -55.505302 850.430481 -0.081278 0.047804 -0.985049
69.422150 -55.699173 850.373230 -0.098649 0.023684 -0.980630
72.871063 -55.285683 850.367920 0.035586 0.075785 -0.995428
78.550735 -55.186790 850.413086 -0.032582 0.066144 -0.974991
81.616821 -54.402283 850.372253 -0.117406 0.012070 -0.993011
43.925240 -52.380348 852.744385 -0.418427 -0.066572 -0.903599
45.384270 -53.046425 852.434448 -0.292320 -0.018816 -0.946657
47.787857 -53.020355 851.506409 -0.217755 0.041467 -0.950319
50.275600 -53.010036 851.316895 0.021080 0.040768 -0.986329
52.769768 -53.007420 851.249878 -0.102103 0.060438 -0.984168
55.259396 -53.000340 851.111389 0.037918 0.100100 -0.984033
57.759262 -53.003441 851.134949 -0.090955 0.109475 -0.982168
60.246845 -52.995308 850.976501 -0.020608 0.064548 -0.989683
62.740345 -52.992897 850.908875 -0.057965 0.045943 -0.988916
65.205902 -53.030693 850.666809 -0.107382 0.042918 -0.986538
67.666100 -53.227482 850.466980 -0.088070 0.050533 -0.961189
69.757545 -53.032528 850.502075 -0.150830 0.034120 -0.967260
72.964539 -52.615372 850.443970 -0.002257 0.119127 -0.980102
75.193695 -52.699986 850.423645 -0.004138 0.098356 -0.983524
77.454735 -52.182430 850.430420 -0.052272 0.059726 -0.989464
80.843956 -52.857182 850.395874 0.061013 0.028223 -0.989227
82.870644 -52.266861 850.434082 -0.038130 0.051629 -0.976504
87.189499 -52.340542 850.404846 -0.034352 0.079406 -0.986502
43.920349 -51.302784 852.659912 -0.414100 0.051334 -0.907938
45.367840 -50.620995 852.436035 -0.316595 0.020298 -0.933052
47.790268 -50.525429 851.572632 -0.120320 -0.001383 -0.972936
50.284439 -50.521976 851.492249 -0.021086 0.065362 -0.984161
52.778709 -50.519001 851.417603 -0.083999 0.071191 -0.987694
55.269672 -50.513145 851.293640 -0.005240 0.048047 -0.988864
57.767002 -50.513489 851.272034 -0.008922 0.028028 -0.989180
60.261219 -50.511070 851.205322 -0.082887 0.073950 -0.980800
62.747803 -50.502651 851.034668 -0.086465 0.078853 -0.982074
65.241066 -50.523003 850.866089 -0.015364 0.068887 -0.984631
67.675621 -50.488228 850.607910 -0.135008 0.058564 -0.972615
70.168564 -50.537010 850.475952 -0.001615 0.067117 -0.993261
72.676247 -50.430965 850.502502 -0.015107 0.067530 -0.991098
75.123039 -50.239922 850.455444 -0.028892 0.065059 -0.991542
77.604988 -50.343029 850.430725 -0.033513 0.079890 -0.989200
80.166443 -50.052559 850.432129 -0.054720 0.080660 -0.989061
83.071594 -50.380047 850.498108 0.014309 0.079072 -0.982669
84.962212 -50.295799 850.409424 -0.070511 0.098941 -0.986251
87.689804 -50.522594 850.423340 -0.000943 -0.009074 -0.986638
89.783058 -50.030983 850.436096 -0.046882 0.027448 -0.979235
45.506241 -48.065044 852.275146 -0.344258 -0.057112 -0.919230
47.799526 -48.037045 851.760864 -0.080767 0.071165 -0.974777
50.294777 -48.034363 851.690125 -0.023728 0.078670 -0.987463
52.786423 -48.028656 851.565247 -0.054901 0.096013 -0.983190
55.281097 -48.026009 851.493103 -0.022466 0.106627 -0.988909
57.779629 -48.026859 851.481384 -0.014590 0.053576 -0.985478
60.272465 -48.023018 851.386414 -0.070225 0.063752 -0.989994
62.761253 -48.016388 851.239746 -0.092027 0.045514 -0.985625
65.243721 -48.005466 851.017273 -0.085561 0.056580 -0.988009
67.719032 -47.990280 850.717896 -0.095831 0.082073 -0.981255
70.207214 -47.984928 850.591125 -0.004362 0.091597 -0.987617
72.645844 -47.949474 850.649902 -0.037238 0.106471 -0.981082
75.106613 -47.926334 850.515869 -0.025345 0.037817 -0.989591
77.720726 -47.976532 850.609070 0.034594 0.052722 -0.988209
80.149673 -47.932224 850.549622 -0.057873 0.069582 -0.980566
82.674828 -47.945854 850.531067 -0.013275 0.030289 -0.991263
85.080566 -48.052078 850.489929 -0.058727 -0.013052 -0.991651
87.603333 -47.937145 850.423462 -0.031124 0.058876 -0.992647
90.141464 -47.374298 850.437866 -0.052722 0.113914 -0.986167
45.366669 -45.604435 852.316956 -0.318594 0.019789 -0.931575
47.802738 -45.542042 851.839722 -0.047910 0.036064 -0.988150
50.302780 -45.543606 851.846680 -0.000748 0.035197 -0.987671
52.796154 -45.539413 851.743591 -0.031355 0.024753 -0.987633
55.298504 -45.542793 851.783508 -0.037587 0.083173 -0.981058
57.787773 -45.535545 851.622559 -0.015576 0.106331 -0.983846
60.278111 -45.529861 851.488220 -0.109644 0.037489 -0.987319
62.767433 -45.523647 851.344299 -0.047341 0.053422 -0.986884
65.243904 -45.509003 851.041687 -0.113089 0.053790 -0.979971
67.727303 -45.500053 850.843262 -0.073340 0.040117 -0.989013
70.225899 -45.501492 850.839050 -0.034554 0.067634 -0.978057
72.716316 -45.497776 850.736328 -0.036692 0.003310 -0.989922
75.184097 -45.493908 850.632385 -0.026639 0.060639 -0.986619
77.708290 -45.497299 850.660217 0.023195 0.041630 -0.992155
80.218613 -45.458668 850.611694 -0.034838 0.056813 -0.987877
82.706947 -45.481163 850.569641 -0.029751 0.031707 -0.993959
85.141930 -45.295700 850.618958 -0.043975 0.153750 -0.975094
87.659935 -45.476353 850.546631 -0.052382 0.040147 -0.990958
90.048744 -45.385391 850.478455 -0.072604 0.059450 -0.986251
91.729721 -44.661835 850.389160 -0.226293 0.098445 -0.967183
43.922047 -43.325935 852.763611 -0.390482 -0.080362 -0.901995
45.323708 -43.062054 852.243469 -0.256364 -0.044935 -0.939795
47.808014 -43.048378 851.952698 -0.034323 0.055888 -0.990959
50.304573 -43.046730 851.897217 -0.018258 0.007542 -0.993327
52.803417 -43.047039 851.880249 -0.007276 0.045845 -0.992666
55.305634 -43.049889 851.912598 0.037499 0.048753 -0.989726
57.802490 -43.048626 851.860901 -0.131615 0.032649 -0.983792
60.286060 -43.037762 851.619629 -0.072020 0.050934 -0.988684
62.772671 -43.029835 851.435120 -0.079339 0.038390 -0.978600
65.251877 -43.017654 851.165039 -0.092381 0.004037 -0.988456
67.729301 -43.005154 850.888672 -0.067046 0.041238 -0.975806
70.232819 -43.009533 850.943298 -0.032807 0.028716 -0.984096
72.720886 -43.004391 850.809998 -0.048276 0.061330 -0.988234
75.214005 -43.002377 850.738403 -0.017867 0.070722 -0.989589
77.716957 -43.006023 850.774963 -0.018359 0.054133 -0.986671
80.212631 -43.005501 850.728760 -0.036005 -0.000992 -0.995885
82.714172 -43.007912 850.741638 -0.009621 0.075370 -0.986451
85.212296 -43.008530 850.716187 -0.079532 0.001820 -0.987100
87.659546 -43.003464 850.578857 -0.070661 0.025376 -0.983447
90.227112 -43.327106 850.523132 -0.062173 -0.066055 -0.968233
91.963608 -43.709129 850.356873 -0.280054 -0.083887 -0.956312
43.716259 -40.103886 852.647400 -0.364725 -0.112049 -0.907512
45.322056 -40.561111 852.231323 -0.184285 0.049896 -0.965054
47.810966 -40.552364 852.025208 -0.019754 -0.016578 -0.993646
50.308826 -40.551655 851.989136 -0.010422 0.059487 -0.993141
52.813393 -40.556099 852.060364 -0.006133 0.064687 -0.985986
55.307415 -40.552528 851.959229 -0.000830 0.015770 -0.989861
57.806332 -40.552574 851.936462 -0.101400 0.053140 -0.984799
60.293781 -40.544842 851.746887 -0.025599 0.021476 -0.993329
62.782440 -40.538548 851.587402 -0.128638 0.050680 -0.984405
65.257660 -40.524273 851.259216 -0.105925 0.040452 -0.981199
67.733444 -40.511398 850.958374 -0.015864 0.017369 -0.991199
70.243942 -40.519428 851.096436 -0.005380 0.012106 -0.983862
72.736557 -40.516911 851.011902 -0.018116 0.021710 -0.976629
75.233452 -40.516777 850.977295 -0.057527 0.029346 -0.981547
77.719719 -40.511097 850.823792 -0.028102 0.019694 -0.988414
80.219559 -40.512531 850.821167 -0.037365 0.087395 -0.987812
82.723412 -40.515896 850.854980 -0.008390 0.048904 -0.987761
85.214172 -40.512814 850.753174 -0.068907 0.023704 -0.988918
87.641327 -40.517715 850.651855 -0.071142 0.007246 -0.972278
89.870979 -40.578560 850.511902 -0.101332 0.051394 -0.975634
92.141838 -39.608597 850.382874 -0.023700 0.013462 -0.988432
43.485489 -38.024918 852.526062 -0.396942 -0.097297 -0.860746
45.326405 -38.065342 852.328613 -0.065848 0.040133 -0.966870
47.812798 -38.054878 852.074707 -0.012602 0.076579 -0.978316
50.317024 -38.059097 852.145813 -0.036549 0.048595 -0.986860
52.816269 -38.059177 852.125061 -0.030098 0.056599 -0.989849
55.313969 -38.058147 852.077332 -0.004397 0.076034 -0.989950
57.804451 -38.052517 851.925964 -0.113971 0.015140 -0.986041
60.292217 -38.045395 851.742493 -0.016749 0.067711 -0.985672
62.785069 -38.042137 851.640503 -0.103454 -0.000051 -0.986262
65.256889 -38.026722 851.267334 -0.135722 -0.013356 -0.985603
67.743874 -38.020832 851.106812 -0.029275 0.031347 -0.992963
70.239075 -38.019825 851.054810 -0.020594 0.032734 -0.994210
72.738602 -38.021179 851.053101 -0.062975 0.037308 -0.975205
75.233643 -38.019997 850.995483 0.063581 0.038382 -0.988655
77.738060 -38.023563 851.042419 -0.064563 0.074321 -0.981775
80.223152 -38.017677 850.875610 -0.010599 -0.013057 -0.987203
82.731987 -38.023037 850.960571 -0.040188 0.005083 -0.980885
85.215767 -38.016888 850.786255 -0.081135 0.019472 -0.985308
87.716423 -38.048492 850.593689 0.030454 -0.012905 -0.966050
89.797585 -38.287254 850.558594 -0.164714 -0.040833 -0.972420
91.606903 -38.895489 850.396729 -0.227826 -0.074980 -0.965966
43.281059 -35.531548 852.396240 -0.177311 0.039308 -0.894513
45.328197 -35.567326 852.379761 -0.092249 -0.037802 -0.979087
47.817551 -35.559628 852.175476 0.001059 -0.017447 -0.984223
50.320187 -35.562119 852.214661 0.001282 0.033476 -0.989854
52.822929 -35.564453 852.248535 -0.035273 0.023006 -0.985676
55.319546 -35.562641 852.180359 -0.028637 0.018722 -0.991305
57.812790 -35.558830 852.064697 -0.070800 0.025638 -0.992421
60.297611 -35.550343 851.836060 -0.114333 -0.011324 -0.980070
62.778450 -35.540253 851.567200 -0.113545 -0.020057 -0.984645
65.252014 -35.526802 851.219238 -0.066570 0.049802 -0.986088
67.749962 -35.527157 851.200073 -0.057027 0.095348 -0.981838
70.242432 -35.524780 851.111450 -0.044858 0.022453 -0.983794
72.746552 -35.528137 851.161011 0.011086 0.030492 -0.976278
75.246567 -35.529228 851.157654 0.000413 0.066965 -0.986833
77.735603 -35.525440 851.031006 -0.075858 -0.040156 -0.975899
80.228943 -35.523426 850.953003 -0.008232 0.084963 -0.987070
82.728462 -35.524353 850.939697 -0.041555 0.036104 -0.985874
85.221146 -35.522331 850.854980 -0.047350 0.010974 -0.991473
87.475945 -35.678066 850.669067 -0.115990 -0.033575 -0.933357
89.746193 -35.746609 850.463379 -0.134756 -0.053194 -0.966747
43.153484 -33.063950 852.578796 -0.168368 -0.049119 -0.960754
45.327625 -33.067101 852.382629 -0.047444 0.069211 -0.984128
47.823429 -33.064468 852.295532 0.012685 0.094522 -0.982275
50.330082 -33.069267 852.397095 0.002750 0.073998 -0.988231
52.824272 -33.065769 852.285095 -0.055589 0.017454 -0.989241
55.319477 -33.063152 852.193909 -0.036115 0.031426 -0.988957
57.809078 -33.057495 852.024414 -0.082123 -0.011837 -0.991176
60.300350 -33.053135 851.887573 -0.064103 0.007758 -0.977290
62.778225 -33.042141 851.578735 -0.162581 0.021942 -0.973852
65.257988 -33.032864 851.311768 -0.071226 0.021120 -0.988680
67.757332 -33.033779 851.306641 -0.014669 -0.013594 -0.988621
70.252991 -33.032764 851.253418 -0.017412 0.035321 -0.984579
72.748955 -33.032001 851.203857 0.000486 0.051529 -0.987268
75.252205 -33.034565 851.236633 -0.078170 -0.025232 -0.979656
77.745605 -33.032467 851.154053 0.021098 0.116713 -0.981672
80.241043 -33.031551 851.096313 -0.066649 0.014044 -0.991211
82.732224 -33.028858 850.992554 -0.021225 0.029625 -0.984762
85.211700 -33.021812 850.776001 -0.112618 -0.004124 -0.975127
87.126862 -32.950939 850.690857 -0.161101 0.051206 -0.952451
89.616562 -32.943272 850.530151 0.248969 -0.207054 -0.804213
42.943008 -30.641411 852.438538 -0.120201 0.016966 -0.952651
45.329689 -30.568804 852.434326 -0.005201 0.032234 -0.990816
47.830227 -30.569361 852.429260 0.017825 -0.007529 -0.987876
50.331902 -30.570560 852.441528 -0.031398 0.005965 -0.991213
52.831841 -30.570452 852.419861 -0.030177 0.043328 -0.987326
55.324051 -30.566214 852.277405 -0.043971 0.007165 -0.993051
57.810257 -30.559042 852.055847 -0.126976 0.039418 -0.986002
60.290524 -30.549404 851.761963 -0.065024 -0.022300 -0.932161
62.773781 -30.542145 851.532349 -0.170144 -0.027645 -0.972306
65.263016 -30.537861 851.389771 -0.014414 0.073781 -0.988304
67.755180 -30.535402 851.292114 -0.008032 0.012149 -0.985366
70.250114 -30.534246 851.231567 0.005654 0.014750 -0.986286
72.757866 -30.538504 851.322021 -0.074722 0.032129 -0.986504
75.240799 -30.532383 851.120056 -0.038071 -0.004298 -0.991453
77.745697 -30.535246 851.168579 0.006171 -0.054668 -0.977264
80.244202 -30.535379 851.142700 -0.044469 0.044561 -0.982787
82.738075 -30.533892 851.065552 -0.010817 0.030422 -0.988645
85.195953 -30.527983 850.869629 -0.089391 0.038838 -0.949108
87.150215 -30.563444 850.722839 -0.313293 -0.040127 -0.909901
89.456528 -31.582203 850.374329 0.372172 -0.305333 -0.876504
41.413593 -28.005604 852.719604 -0.254029 -0.017469 -0.940752
42.929295 -28.140625 852.620789 -0.061119 0.042833 -0.981472
45.410069 -27.990297 852.464722 -0.016247 -0.015821 -0.985371
47.832912 -28.071037 852.489441 -0.004122 0.050953 -0.989540
50.336666 -28.073217 852.534729 -0.027411 0.032897 -0.993681
52.833256 -28.071230 852.455383 -0.042319 0.022190 -0.982833
55.325279 -28.067139 852.308899 -0.068907 0.029741 -0.987740
57.808872 -28.059292 852.047852 -0.139019 -0.001033 -0.977898
60.286991 -28.049461 851.724670 -0.051493 -0.009404 -0.983364
62.773163 -28.044039 851.534851 -0.066223 -0.017610 -0.986977
65.270287 -28.043625 851.496948 -0.030327 -0.013720 -0.991553
67.759796 -28.040060 851.362732 -0.041801 0.006892 -0.992645
70.255386 -28.039188 851.307922 -0.029815 0.007501 -0.987346
72.754883 -28.039808 851.298523 -0.018999 -0.034829 -0.994588
75.247749 -28.037796 851.210754 -0.026538 0.068876 -0.992911
77.741676 -28.036310 851.136292 -0.014151 0.066022 -0.988914
80.250183 -28.040054 851.217468 -0.015220 0.013683 -0.991712
82.737000 -28.036209 851.067444 -0.118735 -0.002909 -0.984229
85.225044 -28.032873 850.933289 -0.065603 -0.018155 -0.983120
87.091423 -28.233437 850.600281 -0.341916 -0.031189 -0.927502
41.053577 -25.668777 852.673035 -0.092532 -0.037291 -0.973664
42.864594 -25.548889 852.558105 -0.052649 0.018470 -0.983084
45.337624 -25.596937 852.606445 0.002666 0.084362 -0.987875
47.858208 -25.595003 852.553467 -0.001586 0.007243 -0.989422
50.336109 -25.572754 852.536194 -0.052068 -0.010159 -0.990312
52.830860 -25.570086 852.427979 -0.047983 -0.020810 -0.987351
55.327438 -25.568419 852.353149 -0.072367 -0.013222 -0.984451
57.805695 -25.558809 852.010498 -0.057609 -0.011537 -0.986725
60.298946 -25.556295 851.905273 -0.132692 0.033294 -0.982083
62.772270 -25.545807 851.531982 -0.045343 0.043676 -0.983202
65.263367 -25.543209 851.417542 -0.059290 -0.025251 -0.986464
67.760872 -25.542982 851.386841 -0.021966 0.012116 -0.992904
70.265495 -25.545364 851.440552 -0.023772 0.052813 -0.987480
72.751984 -25.541227 851.275024 -0.063243 -0.008008 -0.991236
75.250534 -25.541391 851.251587 0.056049 0.010129 -0.989152
77.752701 -25.542744 851.268372 -0.089009 0.022941 -0.988025
80.244347 -25.540571 851.165710 0.004659 -0.015084 -0.991278
82.732292 -25.537426 851.029663 -0.132894 -0.023021 -0.984350
85.133430 -25.609068 850.742371 -0.149932 -0.115803 -0.966720
86.745605 -26.014090 850.521851 -0.329206 -0.232010 -0.910213
40.753876 -22.924330 852.599182 -0.093632 -0.047824 -0.965469
42.781574 -23.119156 852.600830 0.006243 0.001761 -0.985720
45.347042 -23.010666 852.644104 -0.041026 -0.047022 -0.988621
47.843136 -23.057096 852.556885 -0.015575 -0.015403 -0.992400
50.339798 -23.066702 852.607239 -0.024322 0.022337 -0.994419
52.830444 -23.069910 852.429993 -0.081083 -0.007558 -0.982478
55.321056 -23.065899 852.264160 -0.106533 -0.023378 -0.983230
57.804462 -23.059317 852.001099 -0.047202 0.017971 -0.990639
60.290077 -23.054241 851.789429 -0.178768 -0.062213 -0.970338
62.765755 -23.045729 851.452393 -0.013998 -0.061605 -0.991026
65.268394 -23.047415 851.490906 0.002789 -0.008335 -0.985545
67.756760 -23.044065 851.343872 -0.035549 0.000365 -0.990380
70.257866 -23.045095 851.357422 -0.045298 -0.000587 -0.990851
72.748825 -23.042740 851.246704 -0.009740 0.030724 -0.990338
75.258209 -23.046270 851.348572 0.001062 0.023184 -0.989808
77.754684 -23.045660 851.298218 -0.056641 -0.014354 -0.987416
80.244804 -23.043224 851.179688 -0.055127 0.002379 -0.989526
82.723946 -23.037886 850.951477 -0.102297 -0.037654 -0.977800
85.016838 -23.180815 850.656982 -0.251741 -0.063223 -0.953088
40.397156 -20.607300 852.660767 -0.101708 0.000827 -0.971090
42.596729 -20.583982 852.658081 0.036902 0.060734 -0.976342
45.335770 -20.579847 852.589233 -0.076692 0.029427 -0.986556
47.833942 -20.571350 852.536316 0.005702 0.020604 -0.993178
50.357491 -20.571835 852.536804 -0.025234 -0.018838 -0.992102
52.831184 -20.570147 852.449829 -0.092395 0.047771 -0.986581
55.308739 -20.561760 852.080994 -0.043221 -0.059677 -0.972193
57.803406 -20.560123 851.994507 -0.101720 -0.010597 -0.981668
60.279533 -20.552263 851.648193 -0.140338 -0.023556 -0.982729
62.767326 -20.548685 851.482300 -0.029331 0.052587 -0.990602
65.259247 -20.546766 851.379517 -0.030621 0.022693 -0.992119
67.761711 -20.548122 851.413025 0.027094 0.039962 -0.992973
70.257332 -20.547445 851.359192 -0.094051 -0.042586 -0.989623
72.751312 -20.546213 851.283447 -0.001200 -0.026609 -0.989972
75.251541 -20.546709 851.280823 -0.022806 -0.011501 -0.993431
77.750275 -20.546778 851.257324 -0.000153 0.005621 -0.993656
80.240051 -20.544519 851.137146 -0.107572 -0.004303 -0.984381
82.714256 -20.538485 850.860046 -0.107234 -0.009465 -0.983796
84.605736 -20.576607 850.571411 -0.309040 -0.035500 -0.944355
38.666912 -17.237846 852.591858 -0.366049 -0.238855 -0.883680
40.404625 -18.025156 852.606995 -0.062150 -0.013415 -0.982733
42.700508 -17.991177 852.586182 0.031344 -0.039036 -0.975127
45.330479 -18.069981 852.495422 -0.049324 -0.040344 -0.985643
47.806824 -18.091719 852.457214 -0.001738 0.025110 -0.985689
50.335201 -18.071569 852.543823 -0.012328 0.009480 -0.986970
52.829521 -18.069555 852.429138 -0.059466 -0.033056 -0.993161
55.312195 -18.063751 852.140503 -0.087978 0.060013 -0.942894
57.803345 -18.061262 852.000549 -0.168386 -0.042563 -0.974608
60.275799 -18.053179 851.601501 -0.092698 -0.024790 -0.986559
62.770344 -18.052023 851.530029 -0.034388 -0.022698 -0.991560
65.262032 -18.050190 851.422546 -0.031268 0.012975 -0.990539
67.761406 -18.050463 851.415710 -0.008773 0.010109 -0.988434
70.253563 -18.048809 851.319275 -0.046532 0.052689 -0.987583
72.752670 -18.049040 851.305847 -0.004927 0.046490 -0.989377
75.251701 -18.049219 851.288696 -0.028743 -0.015474 -0.988953
77.748650 -18.048824 851.245972 -0.009491 -0.039353 -0.996768
80.235107 -18.046068 851.091309 -0.106369 -0.021512 -0.980939
82.683235 -18.062222 850.777100 -0.175053 -0.049669 -0.975956
84.265503 -18.163223 850.460815 -0.357578 -0.124056 -0.921485
38.564888 -15.517222 852.577332 -0.185017 0.014104 -0.941710
40.436852 -15.564155 852.693604 -0.016167 -0.003443 -0.985921
42.853298 -15.612998 852.644653 -0.036147 0.001920 -0.987102
45.336319 -15.572006 852.610840 -0.005584 0.032834 -0.993047
47.839027 -15.550431 852.638367 -0.031751 -0.026267 -0.986078
50.328140 -15.569233 852.429871 -0.085075 -0.062328 -0.988094
52.817600 -15.566061 852.241699 -0.043152 -0.049348 -0.990404
55.314125 -15.565113 852.176270 -0.090868 -0.023418 -0.980243
57.794262 -15.559833 851.869690 -0.064734 -0.046673 -0.981628
60.276192 -15.555384 851.612061 -0.147378 0.008008 -0.979640
62.766052 -15.553235 851.475891 -0.013832 -0.000470 -0.994510
65.259285 -15.552036 851.391602 -0.023643 -0.025452 -0.994641
67.759285 -15.552468 851.394897 -0.042546 -0.057837 -0.990616
70.253654 -15.551472 851.325623 -0.038813 -0.035474 -0.984451
72.748947 -15.550801 851.267517 -0.041688 -0.030014 -0.991721
75.238541 -15.548911 851.144775 -0.014073 -0.025889 -0.995569
77.738548 -15.549195 851.140564 -0.033785 0.012529 -0.994197
80.226913 -15.547229 851.008545 -0.071061 -0.039395 -0.986440
82.506775 -15.627456 850.618225 -0.243079 -0.076847 -0.958837
38.208752 -13.038603 852.533630 -0.106990 -0.026425 -0.953398
40.292633 -13.115723 852.529663 -0.046909 -0.003173 -0.978462
42.836445 -13.047285 852.486572 0.012416 0.003054 -0.976551
45.331532 -13.070371 852.524780 -0.018723 0.007049 -0.992195
47.826824 -13.069016 852.426575 -0.085404 -0.010996 -0.983656
50.323231 -13.068022 852.349915 0.007474 0.002151 -0.994154
52.817627 -13.066587 852.246399 -0.048953 0.008035 -0.992066
55.302437 -13.063052 852.001099 -0.148373 -0.044195 -0.978918
57.781258 -13.058319 851.681763 -0.064039 -0.007486 -0.986118
60.269547 -13.056092 851.520874 -0.083044 -0.030519 -0.985912
62.764458 -13.055335 851.457764 -0.027631 0.000872 -0.991057
65.256416 -13.054016 851.357727 -0.061040 0.005248 -0.990688
67.745934 -13.052271 851.230225 0.002409 -0.002585 -0.991898
70.248878 -13.053173 851.270813 -0.017819 -0.043755 -0.989050
72.743752 -13.052501 851.210266 -0.066128 -0.062840 -0.981729
75.233322 -13.050825 851.088867 -0.012466 -0.001836 -0.987516
77.727493 -13.050168 851.022583 -0.059477 -0.075029 -0.979062
80.205704 -13.046791 850.787476 -0.073081 -0.044871 -0.988555
82.007324 -13.196898 850.599243 -0.289381 -0.097267 -0.938254
38.068943 -10.487904 852.541809 -0.073515 -0.006306 -0.979172
40.327183 -10.616900 852.618225 0.010435 0.019845 -0.988646
42.832100 -10.570564 852.550110 -0.009161 -0.006964 -0.984853
45.348751 -10.585787 852.571655 -0.044565 0.000689 -0.993469
47.831085 -10.570142 852.503418 -0.037273 -0.003496 -0.992075
50.323143 -10.568420 852.351868 -0.104022 -0.030766 -0.973771
52.805477 -10.564773 852.051758 -0.047922 -0.039073 -0.979460
55.298721 -10.563549 851.944275 -0.110022 -0.040794 -0.946837
57.775490 -10.559380 851.599121 -0.068914 -0.058395 -0.987005
60.266315 -10.557914 851.477539 -0.069212 0.005871 -0.988565
62.754932 -10.556243 851.330750 -0.025129 -0.056249 -0.990087
65.258842 -10.557079 851.391785 -0.029881 -0.008336 -0.992271
67.748878 -10.555686 851.269043 -0.004729 0.006154 -0.990427
70.246147 -10.555401 851.239868 -0.062496 0.035006 -0.987065
72.735886 -10.554049 851.119934 -0.020621 0.003028 -0.988784
75.240120 -10.554804 851.168396 -0.028887 -0.004905 -0.991910
77.720863 -10.552290 850.952881 -0.090346 0.007278 -0.981082
80.175003 -10.594973 850.706604 -0.184776 -0.108098 -0.966470
81.598007 -11.080513 850.410889 -0.383281 -0.104630 -0.913472
36.270206 -7.579845 852.589294 -0.387515 -0.230649 -0.860448
37.830788 -8.070460 852.541992 -0.037857 -0.036686 -0.987168
40.315586 -7.981283 852.557495 -0.055434 -0.054953 -0.977204
42.827934 -8.069751 852.468933 0.004522 -0.031938 -0.989177
45.328384 -8.069795 852.468994 -0.027519 -0.047398 -0.992038
47.826019 -8.069298 852.414734 -0.066782 -0.067826 -0.985629
50.312595 -8.067042 852.174255 -0.075855 -0.047230 -0.987333
52.804882 -8.065802 852.044067 -0.064637 -0.040840 -0.987836
55.287975 -8.063289 851.780762 -0.125556 -0.034577 -0.984681
57.770035 -8.060856 851.519287 -0.041506 -0.008998 -0.988472
60.259949 -8.059632 851.388916 -0.065930 -0.068959 -0.981730
62.757473 -8.059353 851.366577 -0.021914 0.025925 -0.991934
65.247475 -8.058281 851.244690 -0.046340 -0.052001 -0.992532
67.750725 -8.058746 851.292908 0.030988 -0.006413 -0.991682
70.247536 -8.058432 851.257996 -0.062773 -0.031114 -0.995147
72.726097 -8.056076 851.006958 -0.073099 -0.013728 -0.988577
75.227448 -8.056272 851.025818 -0.006830 -0.041765 -0.992727
77.707298 -8.054256 850.805908 -0.162622 -0.098855 -0.975112
79.668419 -8.208577 850.544922 -0.180010 -0.086075 -0.968859
36.062576 -5.401143 852.514160 -0.262798 -0.020082 -0.940511
37.826687 -5.547593 852.448914 -0.018255 -0.027734 -0.991449
40.328793 -5.570130 852.492493 0.014557 -0.003120 -0.992716
42.838757 -5.584269 852.389343 -0.052262 -0.009086 -0.986832
45.326546 -5.569634 852.433533 -0.001108 -0.022043 -0.989962
47.813931 -5.568065 852.198547 -0.092066 -0.048262 -0.987208
50.309456 -5.567444 852.120239 -0.030935 0.008785 -0.985756
52.799068 -5.566292 851.949707 -0.083692 -0.050556 -0.990986
55.276382 -5.563948 851.601807 -0.126736 -0.038345 -0.986104
57.763672 -5.562741 851.426453 -0.093881 -0.055343 -0.983815
60.246765 -5.561144 851.201904 -0.028543 -0.023307 -0.992415
62.749416 -5.561491 851.256531 0.011957 -0.068091 -0.987577
65.241280 -5.560739 851.163391 -0.037008 -0.039328 -0.982080
67.744675 -5.561003 851.217224 -0.020887 -0.029877 -0.993149
70.235565 -5.560225 851.111633 -0.016436 -0.066766 -0.991149
72.728569 -5.559634 851.035034 -0.029971 -0.038312 -0.989283
75.222359 -5.559076 850.968140 -0.079111 -0.035789 -0.989833
77.653015 -5.602252 850.626282 -0.145739 -0.073294 -0.975820
79.099945 -5.911739 850.420105 -0.384331 -0.102854 -0.897685
35.644798 -2.991106 852.461792 -0.234048 -0.103318 -0.942208
37.823280 -3.069989 852.370483 0.030555 0.002520 -0.990372
40.326366 -3.070157 852.440430 -0.027062 -0.049201 -0.992225
42.817856 -3.069399 852.267456 -0.061673 -0.024113 -0.990803
45.320812 -3.069411 852.324585 -0.028680 -0.004353 -0.980256
47.810417 -3.068625 852.133667 -0.043589 0.006064 -0.993252
50.306412 -3.068252 852.066467 -0.072243 -0.005834 -0.989253
52.786301 -3.066929 851.742126 -0.091999 -0.031654 -0.987826
55.268330 -3.065844 851.476013 -0.115520 -0.038818 -0.983530
57.750618 -3.064746 851.231812 -0.071610 -0.018369 -0.991357
60.240723 -3.064195 851.114685 -0.036283 -0.057902 -0.991984
62.741573 -3.064101 851.147888 -0.002293 -0.035443 -0.990448
65.230713 -3.063400 851.023132 -0.044526 -0.016569 -0.981454
67.728561 -3.063269 851.013245 -0.050722 -0.064947 -0.979711
70.219116 -3.062632 850.910889 -0.045348 -0.040176 -0.990005
72.712784 -3.062190 850.848022 -0.020134 -0.026051 -0.990547
75.204292 -3.061720 850.761597 -0.067985 -0.102952 -0.985165
77.397995 -3.305450 850.469604 -0.179908 -0.054772 -0.977423
35.394981 -0.524203 852.403259 -0.146444 -0.048668 -0.958534
37.824768 -0.570653 852.400269 -0.015071 -0.039106 -0.979258
40.315266 -0.570356 852.201660 -0.024956 -0.085783 -0.980006
42.818817 -0.570188 852.282471 -0.021985 -0.026307 -0.989504
45.316856 -0.569942 852.246643 -0.043301 -0.062255 -0.989358
47.803978 -0.569569 852.016235 -0.062402 -0.045291 -0.985852
50.298546 -0.569321 851.930664 -0.073394 -0.052663 -0.980846
52.780247 -0.568893 851.641846 -0.130524 -0.071540 -0.982427
55.261150 -0.568441 851.361938 -0.106930 -0.052496 -0.984323
57.744755 -0.568016 851.141479 -0.037185 -0.067354 -0.989025
60.237057 -0.567608 851.059082 -0.006142 -0.003351 -0.985966
62.733154 -0.567302 851.031494 -0.045843 0.011233 -0.991167
65.226868 -0.567022 850.970093 -0.031125 -0.023889 -0.994659
67.722862 -0.566747 850.937683 -0.024835 -0.042352 -0.989885
70.210342 -0.566287 850.801392 -0.076280 -0.019578 -0.989419
72.729637 -0.573389 850.780823 -0.038718 -0.036184 -0.980535
74.954498 -0.651906 850.502319 -0.161315 -0.081367 -0.973987
76.885406 -0.850246 850.397644 -0.089555 -0.089452 -0.989174
33.775040 2.123811 852.602112 -0.534900 -0.128989 -0.818471
35.318596 1.928313 852.240112 -0.077419 -0.048074 -0.967478
37.818214 1.928540 852.248474 -0.035641 -0.045804 -0.988922
40.312374 1.928567 852.136169 -0.019166 -0.009314 -0.992347
42.814072 1.928923 852.182434 0.003555 -0.045610 -0.989958
45.308823 1.929001 852.090393 -0.041175 -0.044386 -0.991251
47.801414 1.929030 851.965820 -0.085235 -0.021868 -0.986358
50.289303 1.928808 851.769714 -0.103453 -0.083513 -0.984644
52.770618 1.928543 851.480896 -0.083866 -0.046333 -0.989986
55.251171 1.928257 851.203735 -0.130754 -0.060731 -0.985359
57.733273 1.928121 850.968384 -0.093147 -0.019471 -0.983849
60.226837 1.928351 850.909607 0.025310 -0.021203 -0.979527
62.724571 1.928659 850.910645 -0.075131 -0.102404 -0.982166
65.216484 1.928904 850.829163 0.007046 -0.061531 -0.980034
67.717087 1.929363 850.860413 -0.030003 -0.037846 -0.984490
70.210220 1.929683 850.794434 -0.006106 -0.055756 -0.990631
72.605400 1.856775 850.628601 -0.139746 -0.095676 -0.978958
74.886665 1.929754 850.450073 -0.094413 -0.041712 -0.984308
33.392834 4.598723 852.289124 -0.300957 -0.224315 -0.863779
35.317440 4.427192 852.206055 -0.008465 -0.057393 -0.987854
37.811817 4.426947 852.099670 -0.055912 -0.019255 -0.988728
40.312119 4.427453 852.125061 -0.015616 0.003053 -0.983000
42.804890 4.427066 851.995178 -0.034899 -0.011101 -0.992168
45.303547 4.427316 851.985535 -0.032435 -0.043350 -0.991816
47.797359 4.427178 851.886841 -0.039073 -0.051607 -0.989156
50.282906 4.426401 851.655701 -0.125267 -0.012606 -0.983187
52.761570 4.425120 851.329773 -0.109440 -0.022642 -0.987497
55.242470 4.424123 851.062866 -0.066591 -0.039038 -0.989464
57.729153 4.423728 850.901550 -0.085565 -0.076515 -0.987699
60.219963 4.423722 850.806763 -0.012149 -0.041295 -0.989490
62.711121 4.423756 850.721436 -0.031896 -0.029127 -0.995709
65.205276 4.424022 850.677612 -0.006676 -0.015862 -0.990862
67.704788 4.424664 850.700989 -0.073032 -0.072719 -0.984891
70.151047 4.375910 850.563354 -0.019287 -0.043795 -0.987017
72.242638 4.355963 850.472717 -0.137912 -0.047958 -0.982182
74.461708 3.355426 850.424561 -0.080905 -0.193331 -0.971866
33.038498 6.969876 852.123230 -0.261379 -0.077456 -0.882335
35.308861 6.924520 851.992493 -0.018230 -0.025958 -0.983950
37.806973 6.924719 851.981445 -0.027214 -0.058362 -0.990551
40.305614 6.925097 851.979431 -0.011754 -0.067242 -0.984632
42.800400 6.924808 851.898376 -0.042391 -0.072644 -0.988464
45.294186 6.924462 851.803040 -0.060553 -0.047416 -0.985626
47.785206 6.923762 851.662598 -0.033238 -0.089459 -0.984396
50.272175 6.922614 851.466003 -0.117823 -0.120172 -0.975882
52.751205 6.920563 851.154602 -0.105895 -0.123602 -0.980732
55.226288 6.918245 850.807007 -0.115082 -0.077582 -0.981945
57.716476 6.918042 850.706116 0.010557 -0.037911 -0.995133
60.197163 6.903537 850.687500 -0.057220 -0.093288 -0.986929
62.702293 6.903363 850.593689 -0.000406 -0.078427 -0.984506
65.200668 6.918995 850.610596 -0.081035 -0.016699 -0.991478
67.682465 6.943120 850.513550 0.004246 -0.053235 -0.989902
69.971207 6.670924 850.506470 -0.063219 -0.093155 -0.984725
71.713081 6.512136 850.463928 -0.172017 -0.140292 -0.967407
31.331932 10.071212 852.536438 -0.767043 -0.260597 -0.579776
32.833721 9.445021 852.008301 -0.118630 -0.092125 -0.930655
35.306484 9.422214 851.926941 -0.087464 -0.029029 -0.992165
37.800060 9.421354 851.817078 -0.015917 -0.077496 -0.990731
40.297546 9.421614 851.800476 -0.013310 -0.067784 -0.988022
42.792282 9.421339 851.727234 -0.021762 -0.046473 -0.992083
45.288887 9.421417 851.692688 -0.034905 -0.076860 -0.980312
47.776432 9.419804 851.498291 -0.120664 -0.059852 -0.978772
50.253605 9.416379 851.141785 -0.091210 -0.076702 -0.983471
52.736290 9.414380 850.905334 -0.114981 -0.026357 -0.985453
55.223438 9.413312 850.753540 -0.065046 -0.014682 -0.991021
57.698933 9.404227 850.548767 -0.036701 -0.040973 -0.987357
60.177368 9.296205 850.541382 -0.055633 -0.035522 -0.988946
62.702972 9.429613 850.476501 -0.000190 -0.004017 -0.994821
65.089043 9.317572 850.507446 -0.063625 -0.074709 -0.985588
68.058685 9.400043 850.475464 0.055636 -0.019418 -0.986318
69.810753 9.242702 850.429504 -0.104484 -0.049136 -0.990535
31.143707 12.034360 852.143005 -0.667226 -0.180571 -0.667876
32.802345 11.917766 851.758972 0.062162 -0.044985 -0.975908
35.299145 11.917947 851.741638 -0.131504 -0.061240 -0.977253
37.792320 11.916889 851.632019 0.015257 -0.033970 -0.991638
40.291599 11.917850 851.664185 -0.002041 -0.033745 -0.989929
42.783916 11.916855 851.552063 -0.084990 -0.032019 -0.986230
45.275047 11.915588 851.423462 -0.046474 -0.069514 -0.988402
47.759384 11.912839 851.184265 -0.084888 -0.082605 -0.981120
50.243431 11.910320 850.958557 -0.062476 -0.046731 -0.981611
52.704697 11.893079 850.745300 -0.150423 -0.073936 -0.977359
55.179939 11.898181 850.550476 -0.037515 -0.086503 -0.987622
57.686279 11.649046 850.535583 -0.017588 -0.068869 -0.990403
60.017193 11.919483 850.434998 -0.078425 -0.031387 -0.992042
62.693073 11.535549 850.451538 0.009829 -0.081107 -0.989081
64.963417 11.888577 850.435181 -0.063022 -0.035709 -0.988521
67.681351 11.016499 850.383118 -0.055073 -0.145840 -0.983157
69.820778 11.284348 850.369568 -0.095517 -0.084353 -0.982295
30.688797 14.449574 851.929749 -0.469430 -0.164733 -0.787571
32.799145 14.414017 851.664917 0.052810 -0.108401 -0.984774
35.294975 14.413890 851.626160 -0.030878 -0.078050 -0.983178
37.791466 14.414029 851.602356 -0.069463 -0.029139 -0.993167
40.281757 14.411936 851.445374 -0.027888 -0.047268 -0.992483
42.781120 14.413158 851.483704 -0.023404 -0.100746 -0.982827
45.265629 14.409650 851.234863 -0.079999 -0.037163 -0.988853
47.751701 14.406957 851.036499 -0.130948 -0.030396 -0.982167
50.231049 14.402582 850.737793 -0.078826 -0.079737 -0.984875
52.544598 13.964646 850.561829 -0.148583 -0.177941 -0.969805
55.250309 14.236401 850.396851 -0.009367 -0.060918 -0.992996
57.849327 14.193295 850.422424 0.001876 -0.041429 -0.986759
60.122040 14.186114 850.394165 -0.037881 -0.029943 -0.995834
61.980278 14.282670 850.446167 -0.053014 -0.000868 -0.987143
65.422913 13.570002 850.380920 -0.118958 -0.161557 -0.977776
28.914112 18.005575 852.806763 -0.815422 -0.183054 -0.549162
30.399473 16.960167 851.731689 -0.352939 -0.113854 -0.840900
32.794708 16.909332 851.538269 0.008838 -0.021112 -0.980824
35.287010 16.907499 851.420959 -0.022635 -0.059986 -0.983349
37.783989 16.908022 851.420166 -0.043963 -0.087145 -0.987354
40.274391 16.905777 851.276123 -0.033296 -0.083472 -0.983133
42.764400 16.903788 851.138000 -0.047301 -0.061966 -0.988679
45.259830 16.903913 851.112366 -0.069186 -0.106829 -0.979901
47.738564 16.898247 850.789429 -0.147082 -0.117590 -0.977192
50.176479 16.720192 850.538025 -0.088513 -0.122546 -0.984743
52.404686 16.371054 850.388794 -0.115977 -0.036703 -0.986194
54.487198 15.823069 850.366272 -0.020338 -0.080282 -0.996565
57.401123 16.359205 850.396973 -0.047735 -0.073281 -0.971123
63.761902 15.827334 850.415527 -0.120023 -0.082734 -0.989318
28.705719 19.782408 852.395935 -0.797938 -0.239660 -0.541990
30.292639 19.402567 851.384155 -0.187900 -0.119765 -0.912520
32.786335 19.401402 851.305542 -0.012231 -0.072213 -0.990566
35.280357 19.400707 851.245911 -0.046692 -0.037520 -0.987604
37.775150 19.400442 851.205627 -0.008054 -0.019194 -0.994433
40.269531 19.400078 851.159241 -0.027375 -0.035717 -0.992728
42.757114 19.396675 850.979065 -0.068220 -0.073857 -0.989414
45.244827 19.393747 850.816833 -0.085566 -0.115509 -0.977775
47.463158 19.205976 850.586975 -0.127376 -0.099427 -0.979668
49.528568 19.132473 850.458252 -0.109763 -0.057158 -0.982404
52.175308 18.496574 850.437012 0.202381 -0.094186 -0.973426
54.312416 19.387520 850.400391 0.017365 -0.022597 -0.991486
28.437914 22.001663 851.898499 -0.670249 -0.213616 -0.655469
30.284063 21.893093 851.125366 -0.051604 -0.081293 -0.976494
32.782421 21.895308 851.188965 -0.007036 -0.066348 -0.988028
35.274925 21.893661 851.098877 -0.049389 -0.093122 -0.990966
37.767433 21.892231 851.016602 -0.045671 -0.116629 -0.983424
40.257687 21.889851 850.892395 -0.011624 -0.095397 -0.987051
42.750004 21.888868 850.821960 -0.091676 -0.059811 -0.975538
45.189743 21.890184 850.526306 -0.085268 -0.073211 -0.985845
47.383488 21.453682 850.467590 -0.068870 -0.099450 -0.983580
49.322617 21.345913 850.405396 -0.119740 -0.048107 -0.991201
28.115685 24.477022 851.431091 -0.534529 -0.160332 -0.745285
30.278339 24.384377 850.944946 0.034820 -0.068455 -0.990791
32.777569 24.387939 851.045410 -0.022984 -0.069146 -0.989672
35.267750 24.384745 850.907715 -0.052233 -0.038024 -0.991739
37.756634 24.381104 850.755127 -0.008650 -0.084718 -0.989150
40.250996 24.381340 850.734741 -0.083140 -0.092859 -0.983404
42.662029 24.326975 850.503601 -0.091529 -0.110788 -0.980439
45.070408 24.018194 850.437317 -0.080743 -0.098534 -0.984471
133.285782 24.910595 851.913879 0.495702 0.407991 -0.417914
26.406513 27.821999 852.509949 -0.812301 -0.336496 -0.476009
27.815006 26.888350 851.218750 -0.347808 -0.175051 -0.794821
30.273539 26.875683 850.792847 -0.054945 -0.043833 -0.991710
32.766808 26.874889 850.745850 0.007346 -0.107835 -0.988847
35.262306 26.876032 850.756653 -0.021484 -0.098297 -0.984650
37.734165 26.776497 850.588196 -0.068288 -0.092069 -0.985616
40.094437 26.645880 850.469055 -0.095170 -0.096652 -0.986359
42.392464 26.800226 850.424683 -0.033130 -0.057916 -0.990084
44.957348 26.244305 850.389282 0.017296 -0.082446 -0.976914
25.832249 29.649967 852.134216 -0.698512 -0.299153 -0.620229
27.768303 29.367128 850.687988 -0.165589 -0.085997 -0.930600
30.275043 29.326891 850.600342 -0.012312 -0.107318 -0.983576
32.766941 29.301203 850.529358 -0.009991 -0.076606 -0.987278
35.191830 29.189337 850.506592 -0.040733 -0.100028 -0.990059
37.237755 29.173985 850.437317 -0.105817 -0.046923 -0.988830
40.414345 28.737324 850.386963 -0.013640 -0.010284 -0.996363
41.660465 29.360586 850.358032 -0.068714 -0.083145 -0.993817
18.061359 32.733086 852.703796 -0.067069 -0.250180 -0.942456
20.104057 31.937288 852.729553 0.019674 -0.177219 -0.969958
23.244562 32.355080 852.591064 -0.266922 -0.296886 -0.907869
25.298096 31.892233 851.498596 -0.536072 -0.324669 -0.739039
27.816401 31.807755 850.469971 -0.018152 -0.074417 -0.985396
30.035446 31.753824 850.520935 -0.047056 -0.019979 -0.976877
32.716385 31.359600 850.427490 -0.014808 -0.075202 -0.991356
34.587219 31.345041 850.398254 -0.086135 -0.095741 -0.983259
36.852440 30.964130 850.402283 -0.035829 -0.153094 -0.985690
16.411419 35.147537 852.599304 -0.559808 -0.348687 -0.735779
17.879354 34.459770 852.318665 -0.140534 -0.215128 -0.941605
20.310041 34.443665 852.296326 -0.037047 -0.319551 -0.929169
22.816816 34.400177 851.758789 -0.325662 -0.380226 -0.839435
24.798935 33.856476 850.826782 -0.525456 -0.414630 -0.716084
28.302013 33.693474 850.394043 0.066833 -0.112907 -0.990262
29.431753 33.814419 850.439087 -0.052775 -0.184800 -0.970132
15.764123 37.139126 852.211670 -0.470805 -0.301867 -0.784275
17.822105 36.897057 851.734192 -0.091809 -0.213142 -0.960617
20.311232 36.882591 851.389099 -0.157694 -0.335954 -0.917714
22.538748 36.625763 850.854736 -0.338661 -0.378569 -0.843501
26.341702 35.770020 850.344604 -0.010633 -0.223293 -0.974693
6.101743 40.199341 852.714722 -0.119506 -0.283715 -0.940865
7.664445 39.879993 852.744202 -0.020577 -0.176571 -0.970562
10.199802 40.225544 852.691589 0.086468 -0.277700 -0.951053
13.341911 40.009624 852.649597 -0.285476 -0.250261 -0.911580
15.345563 39.413486 851.637451 -0.364461 -0.278990 -0.820791
17.807848 39.363434 851.027039 -0.135002 -0.263612 -0.946144
20.098736 39.161896 850.712280 -0.199313 -0.241112 -0.934940
21.893778 38.449131 850.502319 -0.296003 -0.288504 -0.908329
-1.800040 43.017746 852.789429 -0.066593 -0.227273 -0.957952
0.164400 42.926193 852.745972 0.016767 -0.323155 -0.939856
3.512586 42.789940 852.699341 -0.149237 -0.198699 -0.965122
5.537001 42.115181 852.225342 -0.222318 -0.318431 -0.875760
7.837986 41.915024 852.167542 0.019597 -0.301656 -0.942141
10.337949 41.920933 852.280090 0.073041 -0.255019 -0.957921
12.834143 41.913448 852.120728 -0.281083 -0.334225 -0.868372
15.264148 41.784042 850.897156 -0.319094 -0.271588 -0.883235
17.392103 41.347046 850.593201 -0.130310 -0.202981 -0.956769
-33.591640 45.524326 852.735229 -0.086377 -0.338865 -0.936862
-33.236301 45.526867 852.785645 0.068310 -0.379052 -0.922851
-29.592245 45.168682 852.801514 -0.022962 -0.139991 -0.986870
-27.338959 45.431911 852.723816 0.019830 -0.278672 -0.949654
-24.556610 45.467430 852.688538 -0.066603 -0.407066 -0.900555
-21.961443 45.402164 852.755493 0.028246 -0.207545 -0.976731
-19.222881 45.242851 852.761169 -0.064236 -0.239534 -0.965641
-17.208319 45.413826 852.676270 -0.062066 -0.336483 -0.918331
-14.753127 45.279675 852.723511 0.036402 -0.296264 -0.947714
-12.134885 45.225281 852.688904 -0.012397 -0.340841 -0.936849
-9.567516 45.120876 852.664368 -0.000965 -0.316497 -0.941204
-6.899246 44.939060 852.611084 -0.015281 -0.287019 -0.942222
-4.527865 44.616081 852.501892 -0.123595 -0.218629 -0.951285
-2.197731 44.559132 852.377258 -0.010271 -0.293131 -0.950064
0.342916 44.426472 852.382751 0.014968 -0.290467 -0.946984
2.872675 44.491898 852.295715 -0.138279 -0.342453 -0.920093
5.335870 44.384403 851.569214 -0.194097 -0.230258 -0.925004
7.831211 44.375572 851.395142 0.002083 -0.265044 -0.959980
10.328142 44.378471 851.444397 0.021969 -0.295991 -0.949831
12.703921 44.247559 851.153259 -0.359180 -0.374586 -0.835323
14.378056 43.546585 850.517029 -0.408749 -0.391690 -0.823845
-71.851517 48.056152 852.761719 0.100244 -0.388618 -0.915930
-67.555542 47.990810 852.732361 -0.034212 -0.222935 -0.958464
-64.496193 47.929359 852.748596 0.000680 -0.301615 -0.948565
-61.832054 47.777042 852.731140 -0.050334 -0.242097 -0.964859
-59.610180 47.801380 852.666077 -0.020565 -0.335807 -0.938968
-57.146000 47.630348 852.687805 0.001056 -0.215402 -0.967752
-54.545258 47.679195 852.682678 -0.024701 -0.269680 -0.956449
-52.089676 47.625526 852.626770 -0.023127 -0.318335 -0.943313
-49.730576 47.579109 852.621643 0.020573 -0.264940 -0.954536
-47.218742 47.620831 852.642578 0.020742 -0.319349 -0.944606
-44.543171 47.428177 852.576172 -0.013546 -0.275079 -0.948743
-42.181561 47.397057 852.525452 -0.061493 -0.326160 -0.936406
-39.711159 47.187428 852.469604 -0.033574 -0.290170 -0.950526
-37.162758 47.075100 852.479797 -0.013738 -0.289930 -0.952856
-34.685303 47.073486 852.414856 -0.025860 -0.268994 -0.952965
-32.215733 47.049500 852.406799 -0.008191 -0.295622 -0.945240
-29.655359 47.050995 852.305176 -0.027582 -0.282448 -0.939335
-27.126564 46.952965 852.348328 0.025882 -0.262271 -0.957970
-24.648626 46.928520 852.324890 -0.017079 -0.249708 -0.954022
-22.149300 46.928013 852.330688 0.006026 -0.308106 -0.944862
-19.649044 46.925217 852.291199 -0.040914 -0.291640 -0.948823
-17.148075 46.919743 852.202881 -0.007101 -0.285968 -0.945971
-14.648696 46.917366 852.168091 -0.048358 -0.294102 -0.945310
-12.148614 46.911785 852.073486 0.021123 -0.305754 -0.946777
-9.650242 46.910988 852.064270 -0.047392 -0.264540 -0.955340
