ply
format ascii 1.0
element vertex 836
property double x
property double y
property double z
end_header
12.542751171978807 -5.985442339313741 -9.405197331891088
12.612598428698970 -5.908728019996174 -9.684344769135834
12.679538704757803 -5.835177705794724 -9.952587715009599
12.743308853385400 -5.765148043235135 -10.208612199560989
12.803634630531477 -5.698971616611640 -10.451085073177950
12.860245804091582 -5.636993005914395 -10.678662697799059
12.912866703289289 -5.579539044008571 -10.890038265519053
12.961393622378969 -5.526778167704310 -11.084586941832384
13.006347204409160 -5.478108637721485 -11.264491271504870
13.048414994976017 -5.432750017426092 -11.432662315462270
13.088284163486906 -5.389924424357993 -11.592001422026275
13.126637273550912 -5.348847727756528 -11.745398075903502
13.164166628790763 -5.308750423620983 -11.895755732843025
13.201555545193127 -5.268843272842985 -12.045983302759595
13.239485681761208 -5.228342568676815 -12.198970313943459
13.278650246723616 -5.186478383106820 -12.357620178560058
13.319727045662862 -5.142455652739043 -12.524829986492701
13.363410274182321 -5.095512393918156 -12.703515187856421
13.410382413122186 -5.044856107508214 -12.896553185824612
13.461331619264591 -4.989716855409405 -13.106857366668557
13.516939316615552 -4.929297878167976 -13.337324645937056
13.577854770395708 -4.862884239135412 -13.590673314317627
13.643770305544358 -4.790881039518018 -13.865478670764560
13.713419732504903 -4.714827319114844 -14.156165722407565
13.785508238589971 -4.636333876095115 -14.456968595647385
13.858734443873868 -4.557001424024657 -14.762129109228695
13.931793115010194 -4.478419319821068 -15.065896643489239
14.003387630099834 -4.402199209683467 -15.362505411997002
14.072213131985176 -4.329927896355585 -15.646214507693799
14.136973527184187 -4.263219156195449 -15.911248387959919
14.196359352740981 -4.203653543646276 -16.151854282122095
14.249077687948841 -4.152849377222655 -16.362278310947019
14.293819974457756 -4.112386787352847 -16.536767660177802
9.242452231853989 -9.786141963704244 2.926206481850880
9.341816476963205 -9.692126408668646 2.619979522581738
9.440488528675898 -9.598188148537380 2.313544604663889
9.538464000289142 -9.504358027764331 2.006879856277518
9.635749353357854 -9.410645704921103 1.699991018529021
9.732361762800004 -9.317051214293832 1.392912003378192
9.828323590590649 -9.223583181643965 1.085675590976207
9.923652916253639 -9.130241217242689 0.778315736866484
10.018371160168952 -9.037034221755281 0.470864494683435
10.112500679027468 -8.943970799641605 0.163354547016362
10.206056263810206 -8.851041481664479 -0.144177282819736
10.299063566091885 -8.758263977354039 -0.451701062932889
10.391536465906642 -8.665629215926142 -0.759180130665973
10.483504859234364 -8.573163769029758 -1.066586431964774
10.574980217865045 -8.480848964370123 -1.373880841601594
10.665987260761421 -8.388702822593892 -1.681033988346035
10.756540795285442 -8.296715940498816 -1.988008746441279
10.846670685183549 -8.204914759794164 -2.294777656960560
10.936387597273930 -8.113285397893479 -2.601330066604719
11.025695135635180 -8.021821816998468 -2.907776576258061
11.114595583303178 -7.930512653913574 -3.214252177274138
11.203089308418631 -7.839346967441353 -3.520893899411292
11.291186095788809 -7.748331210334063 -3.827842055247486
11.378873677567665 -7.657428246987013 -4.135226245889264
11.466166068171956 -7.566653332626840 -4.443188934925600
11.553055176523419 -7.475977921107351 -4.751862850092818
11.639547515267413 -7.385399451707354 -5.061385133755478
11.725643399702941 -7.294906770213521 -5.371893791290692
11.811344208260007 -7.204488937445245 -5.683523857635634
11.896653686924637 -7.114144451710295 -5.996413581524510
11.981569783439806 -7.023852721306961 -6.310697754537402
12.066093823393803 -6.933602594038730 -6.626512387230258
12.150220629015022 -6.843393337336281 -6.943963638229779
12.233825859741465 -6.753395688831082 -7.262457832468407
12.316638637615618 -6.663911238119962 -7.580689059977110
12.398403528289954 -6.575295156752079 -7.897334221566569
12.478850892796615 -6.487866134334221 -8.211061483252561
12.557714628538200 -6.401952939026069 -8.520537303170407
12.634731640870662 -6.317892287381291 -8.824436187762696
12.709636678960763 -6.236012310528730 -9.121425527199897
12.782165849241999 -6.156650575068786 -9.410177920270677
12.852049618429934 -6.080126196640029 -9.689359581753266
12.919024997563943 -6.006776317827903 -9.957643066852707
12.982825884046619 -5.936929706792098 -10.213694833704331
13.043189717947829 -5.870921164960090 -10.456196174498476
13.099851294979221 -5.809083081761706 -10.683796961851389
13.152546410820861 -5.751747700416910 -10.895192190199811
13.201161301947376 -5.699047409892572 -11.089738359721107
13.246233294848064 -5.650402628098039 -11.269634006483678
13.288444800903711 -5.605024539939887 -11.437788083985904
13.328482530563999 -5.562129448756558 -11.597080146412200
13.367041055621090 -5.520952816718856 -11.750435356481677
13.404801423892209 -5.480700438546892 -11.900740917139061
13.442452237807686 -5.440596137924482 -12.050888376934722
13.480681947569543 -5.399859054202673 -12.203788753210802
13.520177722585149 -5.357711304921329 -12.362343394288992
13.561625216470006 -5.313364933101081 -12.529451366729102
13.605716885075136 -5.266055119073979 -12.707996657488440
13.653137325181870 -5.214989645542842 -12.900897845502211
13.704572801591695 -5.159391054062475 -13.111056322675729
13.760714254363776 -5.098484450445708 -13.341353794204430
13.822205051089107 -5.031531336717643 -13.594523586794701
13.888733228674802 -4.958951986867380 -13.869133830060388
13.959029673095650 -4.882306003663221 -14.159624112344414
14.031781396777877 -4.803204297198128 -14.460217350186809
14.105678056505933 -4.723260189562707 -14.765167879701700
14.179414443279638 -4.644095381306994 -15.068732144430594
14.251668053472059 -4.567298917257369 -15.365148271266904
14.321137531503718 -4.494503854612103 -15.648665142159061
14.386506495337819 -4.427315561017327 -15.913535029377439
14.446465575824096 -4.367343250506194 -16.153980675127567
14.499701563701070 -4.316196832881395 -16.364276015066217
14.544905172587370 -4.275493890551353 -16.538655872932118
9.466173110295287 -9.969635077465412 2.916790157690989
9.565813168983190 -9.875425445815877 2.610636758857773
9.664799613845258 -9.781233312356527 2.304292517733602
9.763138966290782 -9.687084646377730 1.997737061120923
9.860837740716381 -9.592989319466987 1.690977105744905
9.957910956566684 -9.498958923473571 1.384043131850189
10.054368551912667 -9.404996884803216 1.076968702727572
10.150228871202575 -9.311124021794528 0.769782104027060
10.245508795934496 -9.217351291282773 0.462514878779315
10.340216428546803 -9.123682861195636 0.155200015298497
10.434371970257027 -9.030138893556126 -0.152133235541243
10.527986242605333 -8.936722305548672 -0.459451657112994
10.621076717139122 -8.843454467336365 -0.766726421979111
10.713660270072307 -8.750346314452873 -1.073926084670808
10.805745919017475 -8.657401633414121 -1.381017418166548
10.897352944733775 -8.564640946353297 -1.687971507861436
10.988492147624687 -8.472067085248467 -1.994755527376066
11.079177695370676 -8.379692278979755 -2.301338064430653
11.169426505693851 -8.287531594456707 -2.607717175081977
11.259242288356225 -8.195579419912820 -2.914001508976798
11.348628178157838 -8.103823755121685 -3.220326989503819
11.437581218235792 -8.012244432396532 -3.526828451826748
11.526102787020085 -7.920830512556757 -3.833640930882757
11.614203468240444 -7.829587598307878 -4.140906646903729
11.701881368164967 -7.738495736995848 -4.448757464613435
11.789133582772461 -7.647534973949787 -4.757327243556816
11.875966466183161 -7.556702109400840 -5.066756052954739
11.962386478200727 -7.465994369611938 -5.377182010790537
12.048389915881504 -7.375392649958926 -5.688737068955231
12.133980765789705 -7.284884313184564 -6.001558082872664
12.219158491460160 -7.194458842106362 -6.315782125884803
12.303930457302400 -7.104113038972297 -6.631547272391352
12.388290022594663 -7.013836309709696 -6.948956423638362
12.472103430108398 -6.923781998000335 -7.267412621738651
12.555119486983365 -6.834285844309598 -7.585617454397577
12.637068554251721 -6.745666538244274 -7.902239087630918
12.717687137450261 -6.658251149887413 -8.215945800060663
12.796714056830112 -6.572375973794561 -8.525410059724607
12.873885817928073 -6.488368080048769 -8.829300145244741
12.948932781776293 -6.406546158256825 -9.126284222636841
13.021594831756900 -6.327246718007000 -9.415031789498766
13.091604138113784 -6.250787600876183 -9.694210924679034
13.158704708155145 -6.177513692895245 -9.962495228024057
13.222626103990669 -6.107744533717700 -10.218550957895694
13.283105894288163 -6.041807408459324 -10.461043422476006
13.339878141272170 -5.980027679042373 -10.688652694979467
13.392679614688040 -5.922733480629359 -10.900042175934228
13.441410144444738 -5.870083185595336 -11.094574774967043
13.486597305981206 -5.821462293875042 -11.274471625758267
13.528932861193590 -5.776087118891077 -11.442602308386498
13.569113108316905 -5.733183906409070 -11.601879816870380
13.607828223996028 -5.691962579374899 -11.755202999851601
13.645762346054600 -5.651625106289963 -11.905468642128099
13.683618868383050 -5.611409947682185 -12.055572289186880
13.722087063020377 -5.570527450512392 -12.208412833253256
13.761855673588499 -5.528185831582507 -12.366898922740244
13.803615028960598 -5.483599698171172 -12.533909937497754
13.848062331977559 -5.435994872029063 -12.712358827960820
13.895882625068898 -5.384572897642634 -12.905142335343736
13.947774167909683 -5.328563857080375 -13.115153897706140
14.004431366754281 -5.267186475762548 -13.345294514700726
14.066493276815292 -5.199685084864604 -13.598283280489689
14.133654291587176 -5.126509333903428 -13.872695082805258
14.204623503734812 -5.049220633630867 -14.162958474464151
14.278077318720623 -4.969460087445102 -14.463333139609496
14.352686396605682 -4.888849921750696 -14.768074329611540
14.427133862319033 -4.809046008881978 -15.071414567477703
14.500082669080349 -4.731647861947044 -15.367624227764367
14.570215413401588 -4.658309223121305 -15.650945589666637
14.636202226926736 -4.590650188650425 -15.915643660742472
14.696722004975349 -4.530317828394356 -16.155948812988271
14.750439216558965 -4.478921729980412 -16.366133702722301
14.796038267401290 -4.438114787554121 -16.540440521972428
9.692038025079832 -10.150617004365197 2.908147320251111
9.791670145383124 -10.056540989411777 2.601967227587734
9.890731527907814 -9.962413886830413 2.295618053753472
9.989225743816672 -9.868209599272355 1.989093003515849
10.087166303775142 -9.773945741770511 1.682397748958668
10.184556361668056 -9.679638992336736 1.375560252501911
10.281408488046811 -9.585323422932571 1.068605193745940
10.377724133267908 -9.491016985631555 0.761562399181025
10.473506514626235 -9.396736614064595 0.454461001969674
10.568762163851945 -9.302508425748760 0.147327745556006
10.663498533133584 -9.208358178090938 -0.159810290346606
10.757722175337994 -9.114312073814553 -0.466925972046533
10.851440547937889 -9.020395891628080 -0.773992122268524
10.944651739296960 -8.926618208004593 -1.080977402860812
11.037367447065755 -8.833013646730125 -1.387856592435400
11.129593240242677 -8.739608515019212 -1.694604064312438
11.221333330559386 -8.646419684614838 -2.001188983193891
11.312594249746045 -8.553473273034070 -2.307584605635637
11.403377777803057 -8.460780419875590 -2.613788335305709
11.493693557630255 -8.368343041785593 -2.919912836932173
11.583543020499356 -8.276150412599357 -3.226092169833438
11.672927732576827 -8.184180244555355 -3.532460951255087
11.761849976898549 -8.092421174458032 -3.839154172550670
11.850322199247707 -8.000878169998899 -4.146312991166052
11.938340085494659 -7.909521628019629 -4.454067033646747
12.025906664756032 -7.818339122262035 -4.762554174618989
12.113030311730650 -7.727327456990931 -5.071910493661322
12.199713150929263 -7.636474629963081 -5.382273908983611
12.285956959885183 -7.545759205480518 -5.693775135356355
12.371767135271060 -7.455178194773460 -6.006555261202821
12.457148726782108 -7.364719175617378 -6.320748171506923
12.542101544214759 -7.274360921296541 -6.636487595062719
12.626623123615019 -7.184101427196769 -6.953879559746038
12.710589417840794 -7.094100508400398 -7.272328021560191
12.793744393236372 -7.004674604364265 -7.590530091854025
12.875823891310857 -6.916140073621335 -7.907152699522791
12.956567983182849 -6.828822077178968 -8.220864924472757
13.035718707707819 -6.743045567062294 -8.530332832586630
13.113009034052119 -6.659127534801470 -8.834226410366853
13.188182810282971 -6.577392084391725 -9.131211636528874
13.260978351148932 -6.498165437886202 -9.419956702527450
13.331132297081563 -6.421763103771152 -9.699130444911745
13.398389160175782 -6.348519897591871 -9.967400192123961
13.462483930176532 -6.278752814912181 -10.223431941024202
13.523155003885417 -6.212776303172536 -10.465895416613165
13.580141653498575 -6.150916373427021 -10.693457791143199
13.633182834161893 -6.093497758634385 -10.904792090579274
13.682179949998879 -6.040664930431747 -11.099268524639463
13.727661492091073 -5.991823255953554 -11.279071614766085
13.770308967213387 -5.946184344121330 -11.447110358041147
13.810819813203910 -5.902987069393796 -11.606290317641111
13.849876969860524 -5.861444746836429 -11.759510690876656
13.888168135007675 -5.820781624147999 -11.909663069881784
13.926384707662219 -5.780228621342742 -12.059650953989195
13.965210003810817 -5.738996499312286 -12.212383253113639
14.005340708913984 -5.696329240863063 -12.370746105223436
14.047457801329550 -5.651436324757690 -12.537658263588291
14.092251692699588 -5.603540726650080 -12.716011189591324
14.140409176242677 -5.551867118253954 -12.908696518950155
14.192621650975671 -5.495646419583556 -13.118617750997483
14.249571904468141 -5.434087261371589 -13.348693551835769
14.311911163380781 -5.366478543272414 -13.601622656193513
14.379324598574787 -5.293237126987202 -13.875992793227187
14.450534202194492 -5.215931539766540 -14.166224518324213
14.524225719180958 -5.136187722309968 -14.466574710862332
14.599070924852121 -5.055608186082697 -14.771284128165831
14.673762131387367 -4.975828956387651 -15.074601957268534
14.746974286879940 -4.898457086846612 -15.370790618881120
14.817391396518563 -4.825115682146507 -15.654075529223618
14.883696867615452 -4.757429400857877 -15.918723411028736
14.944569042726867 -4.697010839049312 -16.158967329276816
14.998694042982661 -4.645483383246503 -16.369073875949688
9.926457125103758 -10.321684301253292 2.902576334308574
10.026171843366191 -10.227691772173355 2.596388914567003
10.125313110032396 -10.133649427510322 2.290032282903675
10.223894552613189 -10.039526931782776 1.983502074743521
10.321929869510484 -9.945330551442709 1.676804379861938
10.419423224898404 -9.851076966518807 1.369969155500071
10.516387136486641 -9.756800035956722 1.063020105639511
10.612821591681541 -9.662507850326648 0.755990314151182
10.708737293696867 -9.568235095302551 0.448903300287548
10.804140247623526 -9.473997730692741 0.141789693828268
10.899036080585798 -9.379822298029239 -0.165323805366164
10.993430744832878 -9.285724544104466 -0.472407543134862
11.087334107666875 -9.191739855527995 -0.779436775504584
11.180747886443328 -9.097875155316286 -1.086379794865311
11.273679543919123 -9.004156243479397 -1.393209326379915
11.366135627676925 -8.910609301439164 -1.699898333918645
11.458126309007080 -8.817258835859210 -2.006419509455376
11.549653942871963 -8.724122374798114 -2.312742982916212
11.640724486039762 -8.631219647313054 -2.618869284598962
11.731344920434394 -8.538554055110954 -2.924910234363797
11.821508776452873 -8.446107552596633 -3.230998890471385
11.911219747239516 -8.353878425061973 -3.537274477274698
12.000477349170870 -8.261856368340377 -3.843873092496930
12.089285275391259 -8.170039667723731 -4.150933960491059
12.177642137671345 -8.078418443060389 -4.458593222563905
12.265547452387674 -7.986982390183746 -4.766986976438659
12.353004965526274 -7.895730007401582 -5.076253470849529
12.440018423073180 -7.804659793021678 -5.386530954530718
12.526577871896663 -7.713743835911844 -5.697953218004572
12.612691340433951 -7.622989649870124 -6.010659685397528
12.698362521829365 -7.532395520188413 -6.324789581062567
12.783587660297545 -7.441942129226664 -6.640475832509474
12.868358758565833 -7.351629590428619 -6.957826680353370
12.952552779781422 -7.261617720893456 -7.276244085776402
13.035918160476271 -7.172220626987350 -7.594425917828054
13.118186805969883 -7.083734942219767 -7.911034585463447
13.199112779918501 -6.996501314488908 -8.224741257871575
13.278428892247508 -6.910815953289283 -8.534208300423931
13.355878938182411 -6.827002749600233 -8.838102667454745
13.431209373924650 -6.745384109340353 -9.135092158166138
13.504155429797336 -6.666265892508436 -9.423841376107863
13.574458427786540 -6.589962126563647 -9.703016013054654
13.641864824093691 -6.516795217424583 -9.971283868208637
13.706109208644579 -6.447072514184452 -10.227304710609342
13.766942055883284 -6.381124373172657 -10.469752392944976
13.824099876927592 -6.319253676199184 -10.697301187785740
13.877326830598147 -6.261789850639707 -10.908594678199009
13.926520232600566 -6.208852958775065 -11.103018022754490
13.972205331781671 -6.159847509625648 -11.282765629833076
14.015084700194915 -6.114020756109605 -11.450745170038605
14.055840901449390 -6.070588567466281 -11.609846128077692
14.095159295740705 -6.028773909265429 -11.762969939439280
14.133737697095743 -5.987813101791914 -11.913031879903897
14.172256859911837 -5.946922862314974 -12.062921521345412
14.211414750444172 -5.905344195452237 -12.215534670752582
14.251896200471272 -5.862297936614556 -12.373782519802049
14.294390188612251 -5.817005355311891 -12.540566329648257
14.339585928483421 -5.768700773762238 -12.718779974187079
14.388173303309774 -5.716605037460608 -12.911324670989341
14.440841374479326 -5.659947784292235 -13.121113762742688
14.498282597843106 -5.597964194589174 -13.351031236404424
14.561142761389839 -5.529925420880815 -13.603812656859212
14.629102053993655 -5.456244630741669 -13.878024177044377
14.700882550567790 -5.378498719797594 -14.168098433880534
14.775160256039667 -5.298299001988180 -14.468278335702962
14.850613443506145 -5.217261757424530 -14.772828497816988
14.925919174728822 -5.137002560364053 -15.075972316182504
14.999749683983321 -5.059129736473369 -15.371972342261071
15.070790340021913 -4.985271780625883 -15.655075742826373
15.137710052116606 -4.917027791998885 -15.919542874745336
15.199190640055580 -4.856024277483071 -16.159589528801163
15.253911740499252 -4.803882907376012 -16.369502070852828
10.160939175632159 -10.485601773286655 2.898460527317442
10.260830566549124 -10.391273774659949 2.592363434517210
10.360156675818235 -10.296860013699041 2.286105560870380
10.458945070646248 -10.202345428797457 1.979679476900386
10.557203809717137 -10.107717835445369 1.673097656393053
10.654942403503078 -10.013023287182419 1.366381303649965
10.752158578253654 -9.918281006110151 1.059558119589358
10.848853490905480 -9.823519866851228 0.752655561772374
10.945035768461533 -9.728786432166599 0.445695181164480
11.040704084050645 -9.634099670555576 0.138705502762551
11.135862861487160 -9.539497448812666 -0.168289283647549
11.230508969443907 -9.444999602638516 -0.475260652430507
11.324648637248064 -9.350643135886621 -0.782184394926523
11.418287191734603 -9.256465484946066 -1.089036307034678
11.511424832920973 -9.162495737568733 -1.395789940640034
11.604059308193438 -9.068753201062526 -1.702417204576850
11.696200228423416 -8.975284333697278 -2.008895040867878
11.787845267018790 -8.882108144558647 -2.315196724213652
11.879001097617142 -8.789255287269768 -2.621323159019952
11.969672921426142 -8.696697880950925 -2.927378213491657
12.059874781358044 -8.604419050212195 -3.233496312395198
12.149613165712001 -8.512383890699958 -3.539807534891368
12.238900601608407 -8.420565452505063 -3.846444023984719
12.327745944902443 -8.328938268762272 -4.153539072633064
12.416160923792043 -8.237476239609180 -4.461222916187044
12.504157107950022 -8.146152626135693 -4.769628716853603
12.591739176463776 -8.054933372018084 -5.078886640960778
12.678918804689534 -7.963792164378052 -5.389127899477975
12.765707509458393 -7.872702051289618 -5.700486630230912
12.852118481918449 -7.781646794393705 -6.013096325950875
12.938155789971109 -7.690581838832410 -6.327084827620395
13.023830151525020 -7.599481082726484 -6.642584365411275
13.109150063580117 -7.508337859314123 -6.959698492958307
13.193977193036758 -7.417307419335962 -7.277831445911199
13.278035816992666 -7.326736525629268 -7.595687939970721
13.361053766249547 -7.236998265513760 -7.911950956238232
13.442749719151088 -7.148449397438920 -8.225295314901626
13.522838870512238 -7.061436814317224 -8.534396568410472
13.601044874366925 -6.976325014009909 -8.837934571236364
13.677091490432490 -6.893478920409990 -9.134587226613334
13.750696439605040 -6.813255502966008 -9.423030373931685
13.821579093467298 -6.736010244048929 -9.701942692270755
13.889460791338877 -6.662098417047487 -9.969999846686342
13.954062579119487 -6.591886217899553 -10.225879871163361
14.015108005159643 -6.525737718434584 -10.468264571410941
14.072313433088713 -6.464000452629559 -10.695824578201176
14.125401559493035 -6.407039129344771 -10.907240765208048
14.174257881779157 -6.355003298312587 -11.101893839258945
14.219451280526902 -6.307257824911384 -11.281961666258447
14.261706787129075 -6.262933962412937 -11.450317556075266
14.301754649962735 -6.221179710923737 -11.609849007538710
14.340326174239124 -6.181147330868075 -11.763424007102685
14.378154698341723 -6.141980996133737 -11.913939635449701
14.415965488660529 -6.102825012700539 -12.064261815189905
14.454488182386623 -6.062816882140783 -12.217275719807095
14.494456881317770 -6.021115961209194 -12.375861286537514
14.536600846456260 -5.976862305651936 -12.542893976260892
14.581649421573278 -5.929204339590440 -12.721261331390153
14.630337530303571 -5.877292627389204 -12.913831164044709
14.683384624176385 -5.820256282076954 -13.123496514386794
14.741529856435953 -5.757254670492562 -13.353127345546834
14.805457723239627 -5.687491632139560 -13.605426122043450
14.874829230433379 -5.611440873463271 -13.878981425736193
14.948273140912940 -5.530839285451180 -14.168266022732645
15.024390664586949 -5.447511830196525 -14.467585917894194
15.101766092926081 -5.363248259895034 -14.771238512038192
15.178990895825336 -5.279858909879988 -15.073515838983568
15.254660161603208 -5.199152419424886 -15.368709758214735
15.327363398714645 -5.122935287560144 -15.651131859509643
15.395685803236201 -5.052996842466539 -15.915079500102017
15.458225940718284 -4.991159634239655 -16.154827265279145
15.513573167387543 -4.939225477577148 -16.364706213610738
10.239165530390547 -10.356856115941961 2.934251409691272
10.338340597790854 -10.263896080750094 2.627787835431178
10.436981571891152 -10.170728765332813 2.321192423183244
10.535101338986642 -10.077280566010277 2.014468245684139
10.632707505816288 -9.983549581774124 1.707622480934247
10.729798222079189 -9.889576881840998 1.400680086814707
10.826373899347058 -9.795412546884148 1.093660856172087
10.922431729871409 -9.701097857119279 0.786588727685128
11.017978859777919 -9.606701687023730 0.479480666001165
11.113004910852487 -9.512247223944728 0.172364662718950
11.207517944395004 -9.417802960947839 -0.134742078806802
11.301510883416215 -9.323401216012465 -0.441814200600420
11.394983327354950 -9.229092866604624 -0.748830246066111
11.487941808508806 -9.134936278016676 -1.055770973991973
11.580379892779543 -9.040974394571739 -1.362612766376577
11.672296523504546 -8.947247414138140 -1.669332670554579
10.069224918118273 -10.129208205525364 2.959287392525622
10.168124478523483 -10.036258044639274 2.652787384850409
10.266477521724608 -9.943095404172048 2.346156322326971
10.364285227698030 -9.849672548642069 2.039387138736374
10.461544506437329 -9.755993304268044 1.732489415931818
10.558253854619055 -9.662108173721339 1.425480908355082
10.654404132253598 -9.568061405322322 1.118385249599538
10.749993037095040 -9.473904351789084 0.811222101760880
10.845020829967822 -9.379698591486925 0.504011522927224
10.939476744122882 -9.285477850883591 0.196777379654408
11.033360976974606 -9.191303452725309 -0.110461440711978
11.126673694760774 -9.097236594078920 -0.417686626441415
11.219400867553512 -9.003302024151438 -0.724870974909473
11.311545098897682 -8.909570658679081 -1.031998100365886
11.403105032898198 -8.816093594647548 -1.339047526392505
11.494072381329614 -8.722914443346362 -1.645996551431105
11.584439808129902 -8.630076583764383 -1.952821552282946
11.674211661060371 -8.537649821598379 -2.259507256041598
11.763384850830455 -8.445658126055022 -2.566054628841115
11.851982588712277 -8.354076910568288 -2.872565133667942
11.940027087566461 -8.262853352997146 -3.179164764213350
12.027550082603614 -8.171952451182056 -3.485980845750694
12.114577217371401 -8.081331035503112 -3.793139615328340
12.201138552763439 -7.990943390233864 -4.100769043314070
12.287253693506150 -7.900738391309927 -4.408993302912492
12.372955279416018 -7.810680612556807 -4.717939675813337
12.458269805804866 -7.720726247323752 -5.027735331100115
12.543224725432108 -7.630831277960951 -5.338506418653944
12.627838021548886 -7.540934079852999 -5.650376781155090
12.712149941426491 -7.451017468805011 -5.963477070280150
12.796179425763651 -7.361019609202522 -6.277930109506998
12.879956294875804 -7.270905920884109 -6.593865262513776
12.963498173158843 -7.180633579337799 -6.911376632657727
13.046673776623662 -7.090365791765542 -7.229868524611155
13.129208205636651 -7.000480814590313 -7.548054624932504
13.210802980241212 -6.911331474917063 -7.864613091063256
13.291178559497288 -6.823305813781920 -8.178226694846593
13.370036410606570 -6.736756445273944 -8.487574569342762
13.447100211949202 -6.652080210886819 -8.791343632227118
13.522070737487830 -6.569631000788117 -9.088209157668455
13.594664058147785 -6.489787414491916 -9.376854693355259
13.664591110639032 -6.412919673052869 -9.655961679548628
13.731566209516853 -6.339407437030843 -9.924212775485529
13.795295956198309 -6.269611698974336 -10.180289221653592
13.855490646996032 -6.203904169032391 -10.422867623803693
13.911870047730920 -6.142674164319665 -10.650626894887559
13.964139808669277 -6.086278843098604 -10.862265836530678
14.012175628781321 -6.034877103598803 -11.057146166188545
14.056545860229784 -5.987831681039719 -11.237455505953424
14.097961036367256 -5.944248269299893 -11.406060799828257
14.137156915974950 -5.903280692771386 -11.565861366673811
14.174850599643779 -5.864044729936125 -11.719716458149083
14.211772864167896 -5.825690511059500 -11.870503816895681
14.248644887519401 -5.787337932765059 -12.021104314375386
14.286189363462256 -5.748116966195568 -12.174401103811860
14.325134648392876 -5.707168091112147 -12.333269689668459
14.366206302121149 -5.663624690945483 -12.500573625626195
14.410125056970990 -5.616612900535482 -12.679215620867758
14.457617001169375 -5.565268233471744 -12.872049472886463
14.509405204669049 -5.508718106723182 -13.081968047510049
14.566218552283523 -5.446105130209818 -13.311837093014166
14.628737075563453 -5.376611288252763 -13.564364310165001
14.696653652211442 -5.300676155849672 -13.838122304932902
14.768683828864555 -5.220019893809967 -14.127574641068065
14.843491419541596 -5.136386572638462 -14.427002802495679
14.919743422073392 -5.051545096211209 -14.730673367872921
14.996112109697730 -4.967257139981784 -15.032872123147001
15.071260098407651 -4.885278121019088 -15.327882964755862
15.143858004457481 -4.807375247139366 -15.609972297022182
15.212576668062045 -4.735308487652238 -15.873435705664502
15.276075532439062 -4.670828717470037 -16.112535423734347
15.333029291224062 -4.615707262550629 -16.321559475357184
9.892889320987754 -9.906121920769374 2.982605719982646
9.990986382965957 -9.813559191076843 2.675927237253401
10.088555524644304 -9.720765431018602 2.369124842752635
10.185602766794652 -9.627712206121590 2.062186993904894
10.282120684117677 -9.534394114098358 1.755123472336849
10.378102398496384 -9.440864414725867 1.447952746607303
10.473539328285437 -9.347177641842766 1.140695149345349
10.568420418600065 -9.253378465767529 0.833372275739568
10.662742163884412 -9.159529564480755 0.526001277811023
10.756492683910393 -9.065676351839702 0.218605170592826
10.849667557947940 -8.971881887236739 -0.088799132601341
10.942254858211427 -8.878191392814831 -0.396189494795257
11.034252004887563 -8.784667207745974 -0.703548330136728
11.125647064906552 -8.691354532871543 -1.010853599211413
11.216430525596330 -8.598308219537190 -1.318085500783227
11.306600664191947 -8.505589991185662 -1.625227283473244
11.396145605749481 -8.413245282975812 -1.932255834686474
11.485055864017728 -8.321329052761238 -2.239150865377451
11.573329706972856 -8.229874705220176 -2.545918550298421
11.660993723732304 -8.138867093291811 -2.852661571411691
11.748066854994800 -8.048244381361686 -3.159502752195126
11.834585012738730 -7.957980156728745 -3.466572544551866
11.920576554329379 -7.868029977728225 -3.773997054779398
12.006063798310798 -7.778341448250888 -4.081900325331456
12.091078374210172 -7.688879140105410 -4.390411632718938
12.175644409783303 -7.599589809152651 -4.699654932228325
12.259793640240797 -7.510438453233068 -5.009757549132973
12.343551656288607 -7.421381689710859 -5.320846696100021
12.426947719897893 -7.332374652906317 -5.633048435843331
12.510005001376870 -7.243364309679350 -5.946487742851786
12.592758613781466 -7.154325097375649 -6.261293161374602
12.675232526342356 -7.065203132808392 -6.577591573554575
12.757452981199531 -6.975973835462042 -6.895478457914650
12.839284998752468 -6.886769551950016 -7.214352205876632
12.920477968831428 -6.797968651888429 -7.532924769313929
13.000744107509336 -6.709898092167183 -7.849866161533568
13.079816831748278 -6.622929055063977 -8.163856175278870
13.157422056738952 -6.537414906908692 -8.473569282068723
13.233291630809859 -6.453716542443894 -8.777683968503325
13.307144472882875 -6.372179584554047 -9.074873661460213
13.378706445306976 -6.293157186553129 -9.363813808077040
13.447708597488223 -6.217011093230450 -9.643180987300106
13.513880011095786 -6.144103258357543 -9.911654792099235
13.576941519946704 -6.074778882820748 -10.167906610947178
13.636625183736328 -6.009399713426202 -10.410611027969050
13.692653516895501 -5.948317619342046 -10.638455328478628
13.744759318903499 -5.891897329596894 -10.850100437938252
13.792819710716790 -5.840279157349629 -11.044934842686501
13.837368058288861 -5.792831451853640 -11.225145495647872
13.879100176550830 -5.748742301040700 -11.393616533499969
13.918698956608148 -5.707160332711392 -11.553233027145936
13.956856736160020 -5.667259723975396 -11.706896387460517
13.994264489342083 -5.628209261755918 -11.857486274764792
14.031605718445782 -5.589168072387725 -12.007890085307416
14.069578423802767 -5.549320841598828 -12.161001581202818
14.108868821522105 -5.507825423679151 -12.319708027948778
14.150165924299387 -5.463846769249031 -12.486908641825398
14.194159425475590 -5.416556643420487 -12.665473414133320
14.241537809329216 -5.365117866654954 -12.858311317340348
14.292995903416610 -5.308710582523875 -13.068294450174509
14.349218490823873 -5.246490939173214 -13.298319877904902
14.410854788079218 -5.177679312689566 -13.551091764811510
14.477625798436280 -5.102710501982397 -13.825193447305523
14.548312597110908 -5.023203213303449 -14.115049386987732
14.621657450526353 -4.940839522731041 -14.414901031408366
14.696407454864630 -4.857300516137388 -14.719030873128599
14.771301175356594 -4.774261597285334 -15.021668452499952
14.845085484223773 -4.693411090553717 -15.317067080687750
14.916502871849907 -4.616423833514233 -15.599497386638081
14.984298846892960 -4.544982760359250 -15.863190930962595
15.047213185919048 -4.480763980705322 -16.102418473358263
15.103989436146088 -4.425446592441953 -16.311431130395764
9.718998258383960 -9.681077795514872 3.006623990673088
9.816170625101618 -9.588987611349763 2.699735592723727
9.912742651639386 -9.496740390975019 2.392697724719596
10.008706789680989 -9.404314060141836 2.085498190330874
10.104052847267770 -9.311704275591719 1.778145664814589
10.198788578501865 -9.218958151910101 1.470662240923844
10.292919875431943 -9.126123438696425 1.163068948625726
10.386438290591588 -9.033222965204557 0.855396110609408
10.479359021728449 -8.940321427650279 0.547659425222936
10.571678745023123 -8.847449991143709 0.239886912604344
10.663407619122973 -8.754665356869793 -0.067901865357150
10.754539825832470 -8.661988741212134 -0.375678016211532
10.845087055443351 -8.569486983779671 -0.683423967145838
10.935049533865495 -8.477189276702068 -0.991112791991936
11.024426262562169 -8.385136052165134 -1.298720464903834
11.113229251665857 -8.293383333736623 -1.606226556330051
11.201458364972323 -8.201970959174670 -1.913607777335988
11.289115423445882 -8.110938514652014 -2.220838020087239
11.376207899646584 -8.020315803745063 -2.527920096643499
11.462751955736014 -7.930070283426470 -2.834955400968615
11.548778023215593 -7.840177872068992 -3.142075622086236
11.634302992994126 -7.750588717653089 -3.449405063951841
11.719353014121840 -7.661269723061256 -3.757074240196846
11.803949154275310 -7.572179625732439 -4.065210581406506
11.888114396026278 -7.483276741107469 -4.373939479761293
11.971869648526194 -7.394519167577625 -4.683391292702775
12.055241219350417 -7.305874447073069 -4.993693607006054
12.138245946566030 -7.217292514558366 -5.304971702245378
12.220915113438629 -7.128748651375442 -5.617358199479550
12.303264706271133 -7.040193429519706 -5.930977446247666
12.385322736167232 -6.951593116859634 -6.245958893395126
12.467104179140556 -6.862898283373806 -6.562428883282197
12.548635782833667 -6.774094421049085 -6.880487171014873
12.629784988043777 -6.685323527003163 -7.199534386193215
12.710287591166807 -6.596937987443969 -7.518276071241227
12.789873072975237 -6.509289259625692 -7.835387498962080
12.868274903272859 -6.422748738841914 -8.149547486480312
12.945213146165596 -6.337650488397118 -8.459428023779466
13.020418798217797 -6.254356040064721 -8.763706665424596
13.093622961677220 -6.173227351649921 -9.061059014743211
13.164549025653400 -6.094607712946527 -9.350159256313493
13.232932269161882 -6.018867671218230 -9.629686120092728
13.298492703466881 -5.946341076753622 -9.898312571683235
13.360968027981675 -5.877408127320669 -10.154719579220558
13.420078940912690 -5.812405442414542 -10.397567425263006
13.475555329148392 -5.751690080474953 -10.625554152369798
13.527125762558558 -5.695617968056130 -10.837338534992263
13.574682388556964 -5.644357107869101 -11.032305669147057
13.618748680855155 -5.597256538074541 -11.212648005507983
13.660013428188236 -5.553488447799415 -11.381235578959309
13.699169344444201 -5.512224459979543 -11.540979512979845
13.736900988748658 -5.472627961267508 -11.694747691442846
13.773896845380115 -5.433861772124745 -11.845449086816121
13.810846079262458 -5.395095527504358 -11.995963446588004
13.848436950713708 -5.355499286374412 -12.149170561830459
13.887353714402874 -5.314227066721957 -12.307977254000285
13.928294522889914 -5.270468238607769 -12.475257816420132
13.971939929651441 -5.223370147703434 -12.653907163348094
14.018977666588381 -5.172100722818103 -12.846814842043838
14.070104829426516 -5.115845073694731 -13.056874658205402
14.125998270450058 -5.053743873689431 -13.286969618892179
14.187310155002049 -4.985029279551986 -13.539796370374713
14.253757715684319 -4.910133101918900 -13.813957892190462
14.324115847699890 -4.830681699479331 -14.103859482233815
14.397126454592723 -4.748371754903236 -14.403776507309122
14.471523050147214 -4.664878661869304 -14.707948481873725
14.546052295933899 -4.581910035680782 -15.010643167555280
14.619443852316465 -4.501129913368119 -15.306107640404210
14.690443476259579 -4.424246334249511 -15.588609705631793
14.757784681547626 -4.352934692003646 -15.852388877695375
14.820210276330450 -4.288891245285532 -16.091720479815688
14.876453398203648 -4.233793941947717 -16.300834313846000
9.544968923974272 -9.456211886163873 3.030588289153715
9.640789931766884 -9.364896227391243 2.723375401648114
9.735992079663298 -9.273474639841886 2.415999813426042
9.830561222181721 -9.181906809304232 2.108454692965715
9.924499485584159 -9.090193165843722 1.800745981146999
10.017814970234335 -8.998370114512548 1.492899115270903
10.110518490313607 -8.906472788318050 1.184939663389305
10.202617241579826 -8.814538016327365 0.876893019219589
10.294123011514444 -8.722600784453542 0.568786062701658
10.385043858207821 -8.630697327336060 0.260643450641505
10.475389722940461 -8.538863329806741 -0.047508707121355
10.565173850859800 -8.447143617980384 -0.355646885589544
10.654401927216000 -8.355564967706490 -0.663743311721923
10.743082967547002 -8.264163402625474 -0.971772309510106
10.831231121606120 -8.172983324837185 -1.279710310373091
10.918851175321803 -8.082051955507659 -1.587529487291485
11.005957320720736 -7.991413867149458 -1.895205491189272
11.092554280321320 -7.901096025309554 -2.202711665789583
11.178658385005889 -7.811135341995762 -2.510050805007458
11.264288217333766 -7.721508924685011 -2.817326540984999
11.349451809891463 -7.632159812926361 -3.124663195822339
11.434178448996352 -7.543075484672539 -3.432193895437118
11.518481195766897 -7.454206931900245 -3.740047020594391
11.602379919853906 -7.365524238612513 -4.048352414392173
11.685891218746288 -7.276988475338936 -4.357236749715078
11.769037517387357 -7.188567814990019 -4.666832665766552
11.851830279050652 -7.100214949635930 -4.977264728003826
11.934293497313064 -7.011908339722295 -5.288666881773461
12.016446430639409 -6.923607570717966 -5.601166644827967
12.098302909859267 -6.835274772181499 -5.914891796421593
12.179886317363529 -6.746877906024338 -6.229973956555400
12.261208063584032 -6.658369451300759 -6.546538666305385
12.342287553632922 -6.569737866085443 -6.864687980684079
12.422992892335108 -6.481135859046152 -7.183823879018276
12.503056151979587 -6.392917086418839 -7.502654029304023
12.582199523650132 -6.305436184561403 -7.819855028632252
12.660148681959257 -6.219057655368736 -8.134102741832223
12.736635980738040 -6.134152466085817 -8.444079932087178
12.811375310376405 -6.051058287169452 -8.748455967609726
12.884096363729515 -5.970147570925358 -9.045912766715212
12.954527476385801 -5.891783334187691 -9.335127039100790
13.022385705213672 -5.816311834854915 -9.614773274430018
13.087401753357582 -5.744105527249586 -9.883531396197068
13.149303263166921 -5.675528704284363 -10.140074255207640
13.207806604567885 -5.610924854651140 -10.383089024169305
13.262640694407695 -5.550659338358868 -10.611241680972739
13.313530943090324 -5.495095592222995 -10.823212968541053
13.360365268420054 -5.444392816480171 -11.018385831879890
13.403675813978397 -5.397898363315422 -11.198942573222748
13.444164409171499 -5.354775931472557 -11.367762329887199
13.482527220773052 -5.314178711077036 -11.527731887951170
13.519462600957286 -5.275256490050570 -11.681747658929382
13.555667773332072 -5.237166718836441 -11.832676916524349
13.591839280859887 -5.199060033386251 -11.983416159418045
13.628679329135664 -5.160097578269953 -12.136854237532148
13.666881288346570 -5.119425447282586 -12.295865986162227
13.707145554875785 -5.076205633023996 -12.463340342397192
13.750170104708754 -5.029590477589747 -12.642164005147713
13.796647779615554 -4.978723944615978 -12.835221565897054
13.847284110194732 -4.922776405161960 -13.045404069161521
13.902771938216368 -4.860891822863833 -13.275596106424384
13.963771863896270 -4.792287615787693 -13.528491562774438
14.029982862180958 -4.717387338118500 -13.802670126355224
14.100165016046381 -4.637871083008710 -14.092578774856996
14.173020719797876 -4.555443267236959 -14.392492423834451
14.247266030634524 -4.471830606947568 -14.696660847966712
14.321609005494121 -4.388748027537521 -14.999351314048148
14.394764116324483 -4.307915854674407 -15.294842865320980
14.465443801901193 -4.231062500562361 -15.577385450798829
14.532353170347214 -4.159891109935167 -15.841253855285505
14.594210170842285 -4.096135919282519 -16.080709847826089
14.649721872949419 -4.041503909641072 -16.290008657265389
9.368086747699403 -9.233598381956886 3.053743819831140
9.462481926897006 -9.143143226327732 2.746179404008442
9.556300227960634 -9.052564128345368 2.438461121647389
9.649547512421165 -8.961811871501103 2.130585051303478
9.742225453879746 -8.870877026373867 1.822562386058393
9.834342951622562 -8.779795147969118 1.514416655559227
9.925905392195713 -8.688603913383901 1.206173166356110
10.016919971357055 -8.597340151685351 0.897857312166426
10.107398056348046 -8.506049260097514 0.589491262515900
10.197340825241987 -8.414760198449407 0.281102865213183
10.286756353038585 -8.323509269545589 -0.027282910737731
10.375654236870417 -8.232342876271764 -0.335643261020472
10.464037430203835 -8.141288994096879 -0.643950875055156
10.551912201997300 -8.050384786636346 -0.952180812467908
10.639286647330369 -7.959666637640774 -1.260307733519600
10.726169430195222 -7.869181258982227 -1.568309404311623
10.812564484756148 -7.778956508857586 -1.876157065789442
10.898477996481708 -7.689029214317161 -2.183827319056835
10.983923529594897 -7.599437346397730 -2.491324064398489
11.068905832642519 -7.510143164733057 -2.798745917817465
11.153446132542125 -7.421126188797734 -3.106227931029969
11.237558871309272 -7.332359046684498 -3.413900208635765
11.321252692716467 -7.243795276476579 -3.721889398080493
11.404547919075373 -7.155414821663520 -4.030330594663982
11.487455667397947 -7.067181083848720 -4.339351708391362
11.569988758224465 -6.979056190573909 -4.649082513338052
11.652166714944144 -6.891020935375352 -4.959656197149968
11.734006640548461 -6.803046461285048 -5.271203709294768
11.815514464992294 -6.715087578431074 -5.583851827968965
11.896707238425407 -6.627115216829537 -5.897732478258988
11.977601159233405 -6.539100943527378 -6.212976653216118
12.058212372960181 -6.451016112555649 -6.529716321510409
12.138543072860038 -6.362824894640642 -6.848047303039489
12.218475914639811 -6.274705770859253 -7.167376967377161
12.297741748216524 -6.186991400379071 -7.486408331828454
12.376077103473190 -6.100041196915587 -7.803816738219134
12.453213323235754 -6.014205982708981 -8.118276396566351
12.528880792882568 -5.929836790998480 -8.428462536089647
12.602810855239582 -5.847284444024264 -8.733049366806167
12.674740040189807 -5.766908355501821 -9.030712230541688
12.744398680269892 -5.689059345654501 -9.320127332134511
12.811518223989200 -5.614088662754256 -9.599966930364253
12.875829961331959 -5.542346916025370 -9.868906210866829
12.937074704632385 -5.474202534673609 -10.125621690860246
12.994973105552022 -5.409987879893162 -10.368791170457044
13.049261264943386 -5.350064706557491 -10.597081254497681
13.099671218871460 -5.294782560828255 -10.809170011890760
13.146099637779397 -5.244307325341733 -11.004442320734821
13.189067433789418 -5.197993994636218 -11.185071293662762
13.229259096567734 -5.155009639406805 -11.353956364872818
13.267363791038235 -5.114523894606600 -11.513977281853325
13.304057923836952 -5.075683671808079 -11.668038889384569
13.340036029100332 -5.037680037131818 -11.819015655123707
13.375976851093244 -4.999661184279303 -11.969802580496076
13.412570542114350 -4.960804692563963 -12.123291450939597
13.450495094050936 -4.920263864034997 -12.282357842671459
13.490436277363884 -4.877202791198693 -12.449910858910346
13.533085301186031 -4.830803313686298 -12.628822772718770
13.579123706368764 -4.780220721529711 -12.822000536304419
13.629230917822337 -4.724610022922096 -13.032309926113143
13.684099356014855 -4.663153763348395 -13.262664434552907
13.744371822464505 -4.595066918624584 -13.515756449455850
13.809759051994188 -4.520767530741269 -13.790165092378402
13.879043342191732 -4.441895303018554 -14.080319475612360
13.950968851461042 -4.360139831880132 -14.380473041073920
14.024280197163705 -4.277196527951107 -14.684901024816547
14.097714135318821 -4.194741643024226 -14.987833054359026
14.170015811705071 -4.114472717883503 -15.283534609567131
14.239924626699780 -4.038068416319337 -15.566266737533738
14.306185349892839 -3.967228833289603 -15.830285205520553
14.367539343101626 -3.903636468887570 -16.069831504661444
14.422726617889456 -3.848980485437819 -16.279169007394788
9.190597552657781 -9.011418186814158 3.076735120573280
9.283880709569972 -8.921591506098650 2.768905115368897
9.376615348180577 -8.831629016661827 2.460928448431140
9.468807517756943 -8.741470153414069 2.152801616007097
9.560472884437859 -8.651120973825149 1.844533721895721
9.651609838500605 -8.560611411546692 1.536151117288510
9.742222703360280 -8.469978928643016 1.227676138295664
9.832314135892847 -8.379262410351249 0.919133668030809
9.921886808826789 -8.288500805813277 0.610548882293206
10.010947545237503 -8.197741547121542 0.301943342442951
10.099496564165454 -8.107013798713639 -0.006656152182266
10.187536484968989 -8.016356294585417 -0.315225411158142
10.275074168241128 -7.925816618070591 -0.623742180435256
10.362108005844398 -7.835424709211260 -0.932180079553545
10.448646682907661 -7.745227365085851 -1.240516484366897
10.534687637544785 -7.655254751646632 -1.548725965324327
10.620239613010511 -7.565553900289514 -1.856784825099078
10.705305176349897 -7.476163334124600 -2.164669839129430
10.789885814143460 -7.387105115299711 -2.472380780012545
10.873999815530642 -7.298367273840917 -2.780023648819660
10.957655718600519 -7.209902921799669 -3.087727044233953
11.040880095852842 -7.121700809173547 -3.395624222923937
11.123675499397162 -7.033706306585415 -3.703840744110262
11.206069300655688 -6.945907313986122 -4.012511772115354
11.288068334189166 -6.858258217488808 -4.321764041552103
11.369690607594954 -6.770729736110509 -4.631728458304543
11.450953171022814 -6.683292799867329 -4.942536947459101
11.531872275700060 -6.595919188822101 -5.254319526448290
11.612462551378727 -6.508570182486643 -5.567205882180279
11.692739344680245 -6.421217984938746 -5.881326075671208
11.772716380750774 -6.333824299705176 -6.196809837412869
11.852409857975914 -6.246360693832877 -6.513788160456545
11.931827955589501 -6.158799079476729 -6.832359904162391
12.010854580165837 -6.071306804165438 -7.151929049972691
12.089230291708398 -5.984222998467162 -7.471199529082964
12.166687125566320 -5.897877065555591 -7.788838862414551
12.242972173473227 -5.812634253515945 -8.103524237718862
12.317819838334291 -5.728833403010309 -8.413926389714266
12.390971067378480 -5.646831381647644 -8.718722393545946
12.462158800560807 -5.566957168586693 -9.016579726551626
12.531125048241247 -5.489567846469138 -9.306172493436549
12.597607432645162 -5.415011056414610 -9.586175574751266
12.661345755101618 -5.343635082624075 -9.855256934547683
12.722077802657935 -5.275784159979742 -10.112105068455506
12.779539457787120 -5.211803093588638 -10.355363393867545
12.833471356964719 -5.152043427679282 -10.583731381577078
12.883609976516190 -5.096844219963312 -10.795874801041364
12.929850094904037 -5.046363832731632 -10.991166535992999
12.972705176752486 -4.999979943566542 -11.171794498196203
13.012848563037366 -4.956875633891675 -11.340661013781848
13.050941140903230 -4.916220630415557 -11.500654568589187
13.087652021716416 -4.877189212087437 -11.654675337738080
13.123658634870647 -4.838988869687226 -11.805610698507742
13.159621632513279 -4.800776277215411 -11.956356523996007
13.196212170219598 -4.761737918299383 -12.109805514896912
13.234100498959014 -4.721060700581479 -12.268850415488110
13.273950067465410 -4.677908394392609 -12.436399049649765
13.316435508545986 -4.631481394182264 -12.615326843878769
13.362226309755862 -4.580951424725829 -12.808543685899050
13.411987211660298 -4.525499569380077 -13.018930499956802
13.466391555235116 -4.464308909568633 -13.249389612182885
13.526060279229203 -4.396599913133518 -13.502633925208205
13.590723585183238 -4.322807823167457 -13.777226870815944
13.659187113863290 -4.244524290636635 -14.067608833711667
13.730224710129351 -4.163408182720835 -14.368007654485538
