ply
format ascii 1.0
comment Created by CloudCompare v2.13.alpha
comment Created 2023-11-15T14:54:40
obj_info Generated by CloudCompare!
element vertex 845
property float x
property float y
property float z
property float nx
property float ny
property float nz
end_header
0.148024 5.081253 0.566183 0.001020 0.998945 0.045917 
0.069726 5.082698 0.577517 -0.013482 0.998720 0.048743 
-0.006603 5.080271 0.582209 -0.032612 0.998346 0.047340 
-0.082836 5.079366 0.594563 -0.048115 0.997577 0.050253 
-0.167799 5.074294 0.598606 -0.063985 0.996648 0.050971 
-0.243391 5.067059 0.604258 -0.078108 0.995603 0.051705 
-0.314656 5.054737 0.614249 -0.092419 0.994344 0.052334 
-0.392746 5.052055 0.623043 -0.107287 0.992687 0.055337 
-0.476092 5.039604 0.626579 -0.122293 0.990913 0.056003 
-0.555104 5.035557 0.642152 -0.137631 0.988861 0.056672 
-0.628035 5.022839 0.643478 -0.153302 0.986514 0.057342 
-0.706240 5.002409 0.649917 -0.168910 0.983931 0.057878 
-0.781565 4.991700 0.661737 -0.182889 0.981387 0.058572 
-0.863318 4.979665 0.663729 -0.199461 0.977964 0.061652 
-0.937234 4.957349 0.675306 -0.213569 0.975096 0.059799 
-1.006946 4.946269 0.681959 -0.228379 0.971535 0.062958 
-1.088789 4.925851 0.691243 -0.243473 0.967648 0.066175 
-1.163184 4.899684 0.689733 -0.257638 0.963943 0.066609 
-1.238505 4.881382 0.696623 -0.276232 0.958538 0.070013 
-1.318635 4.854433 0.704747 -0.291508 0.954144 0.068061 
-1.392507 4.830307 0.715338 -0.306922 0.949256 0.068637 
-1.461395 4.812790 0.715103 -0.319380 0.945105 0.069090 
-1.531870 4.786909 0.725956 -0.335041 0.939428 0.072264 
-1.605704 4.759163 0.734171 -0.350916 0.933570 0.072832 
-1.685844 4.729918 0.738991 -0.364550 0.928068 0.076115 
-1.759759 4.697136 0.741792 -0.378407 0.922451 0.076759 
-1.831728 4.671035 0.747894 -0.391352 0.916766 0.079895 
-1.898149 4.636927 0.753380 -0.407730 0.909551 0.080455 
-1.965234 4.602870 0.754614 -0.421944 0.902988 0.081090 
-2.040172 4.566105 0.761427 -0.435095 0.896434 0.084256 
-2.111819 4.535347 0.766183 -0.450700 0.888918 0.081819 
-2.181046 4.500645 0.769520 -0.465140 0.881392 0.082412 
-2.250201 4.458465 0.776911 -0.478486 0.874184 0.082788 
-2.311784 4.418533 0.785918 -0.491722 0.866501 0.085946 
-2.380624 4.380537 0.786529 -0.505067 0.858755 0.086300 
-2.451801 4.342161 0.798790 -0.519653 0.849952 0.086846 
-2.518870 4.301432 0.803024 -0.532982 0.841625 0.087163 
-2.585384 4.254517 0.798826 -0.544970 0.833904 0.087252 
-2.651671 4.211871 0.805247 -0.558188 0.825085 0.087531 
-2.709893 4.167984 0.806935 -0.569401 0.817343 0.087933 
-2.776628 4.122920 0.813036 -0.582373 0.807808 0.091041 
-2.836417 4.076708 0.815580 -0.596787 0.797168 0.091478 
-2.901753 4.031984 0.820601 -0.609742 0.787280 0.091680 
-2.965061 3.975831 0.825808 -0.622587 0.777140 0.091857 
-3.021677 3.931575 0.834410 -0.633391 0.767968 0.095082 
-3.085077 3.873860 0.831900 -0.646023 0.757356 0.095219 
-3.146863 3.822252 0.842238 -0.657071 0.747803 0.095122 
-3.197625 3.775252 0.841683 -0.667777 0.738223 0.095397 
-3.255377 3.720688 0.843970 -0.679793 0.726777 0.098372 
-3.313294 3.667051 0.851418 -0.690289 0.716782 0.098613 
-3.369365 3.611504 0.850788 -0.701979 0.704922 0.101544 
-3.422361 3.552005 0.854103 -0.712432 0.694805 0.098418 
-3.482509 3.501632 0.852115 -0.723774 0.682500 0.101712 
-3.532060 3.441268 0.853561 -0.733656 0.671906 0.101447 
-3.581168 3.379356 0.861798 -0.744774 0.659573 0.101360 
-3.637442 3.327192 0.865639 -0.755613 0.646616 0.104578 
-3.685934 3.266332 0.859008 -0.764878 0.635686 0.104235 
-3.736611 3.205066 0.867952 -0.775341 0.622911 0.104063 
-3.789333 3.140186 0.868436 -0.785555 0.610012 0.103863 
-3.833638 3.076944 0.872768 -0.794441 0.598391 0.103877 
-3.883259 3.011733 0.872360 -0.805220 0.583894 0.103383 
-3.927657 2.953898 0.872821 -0.812326 0.574005 0.103176 
-3.969766 2.885923 0.876725 -0.821567 0.560752 0.102877 
-4.017054 2.820608 0.870765 -0.830541 0.547435 0.102554 
-4.057656 2.755147 0.870543 -0.839243 0.534064 0.102206 
-4.098230 2.691998 0.876006 -0.846863 0.521921 0.102084 
-4.142381 2.623366 0.873763 -0.855063 0.508455 0.101691 
-4.176994 2.556133 0.882071 -0.862735 0.494825 0.104099 
-4.214087 2.486612 0.880691 -0.870638 0.481478 0.100841 
-4.255300 2.419168 0.881598 -0.878660 0.465506 0.106118 
-4.291584 2.342059 0.875241 -0.885734 0.452020 0.105612 
-4.326741 2.270002 0.878445 -0.893631 0.436294 0.105216 
-4.359039 2.207672 0.875093 -0.900661 0.421793 0.104404 
-4.393388 2.131225 0.875104 -0.906103 0.409342 0.106845 
-4.425611 2.060726 0.877658 -0.912076 0.396015 0.106248 
-4.453558 1.986730 0.878712 -0.918752 0.380410 0.105746 
-4.483707 1.915251 0.876199 -0.924833 0.364742 0.107920 
-4.510812 1.843044 0.874642 -0.929702 0.351522 0.109936 
-4.543710 1.764854 0.871218 -0.935789 0.335268 0.109063 
-4.567072 1.698854 0.871204 -0.940389 0.322381 0.108352 
-4.592614 1.624681 0.876945 -0.945530 0.307197 0.107719 
-4.610658 1.550214 0.871249 -0.950355 0.291302 0.109403 
-4.641098 1.469227 0.865311 -0.955796 0.273271 0.108524 
-4.654354 1.395743 0.871551 -0.959533 0.260278 0.107478 
-4.681945 1.318512 0.869821 -0.964239 0.242665 0.106567 
-4.695107 1.246343 0.864902 -0.967267 0.230666 0.105775 
-4.719672 1.162188 0.866067 -0.970524 0.215812 0.107275 
-4.732087 1.085409 0.857396 -0.974247 0.198851 0.106304 
-4.748175 1.012717 0.852473 -0.977172 0.184536 0.105272 
-4.758345 0.930665 0.849661 -0.980338 0.167673 0.104031 
-4.771656 0.854473 0.852223 -0.982788 0.153523 0.102752 
-4.783607 0.782477 0.853383 -0.984910 0.140018 0.101722 
-4.800568 0.703375 0.847612 -0.987396 0.124164 0.098148 
-4.809683 0.626813 0.848234 -0.989344 0.108629 0.096949 
-4.809587 0.549303 0.840275 -0.989986 0.098650 0.100972 
-4.817982 0.468257 0.840399 -0.990745 0.088810 0.102650 
-4.828765 0.387508 0.838118 -0.991175 0.081545 0.104516 
-4.835873 0.315864 0.833124 -0.991821 0.074187 0.103862 
-4.831507 0.237644 0.826604 -0.992817 0.064527 0.100753 
-4.837537 0.157143 0.825199 -0.993159 0.059747 0.100330 
5.116516 0.096100 -0.141521 0.994147 0.047870 -0.096854 
5.110692 0.176530 -0.138035 0.993841 0.057014 -0.095024 
5.114737 0.256107 -0.126403 0.993174 0.066512 -0.095823 
5.106465 0.334296 -0.130775 0.992820 0.073752 -0.094176 
5.102369 0.409396 -0.126111 0.992229 0.080882 -0.094552 
5.104610 0.488250 -0.121064 0.991794 0.088083 -0.092659 
5.099675 0.566411 -0.110938 0.990745 0.098265 -0.093641 
5.083799 0.651013 -0.109401 0.989052 0.113268 -0.094585 
5.079643 0.727425 -0.106201 0.987526 0.128603 -0.090848 
5.069270 0.801463 -0.101726 0.985410 0.141794 -0.094132 
5.061162 0.876117 -0.097771 0.983646 0.157335 -0.087675 
5.049162 0.953503 -0.086205 0.981576 0.170656 -0.085933 
5.030687 1.039405 -0.080867 0.978119 0.187769 -0.089589 
5.020057 1.107949 -0.077145 0.974713 0.204355 -0.090412 
4.996090 1.187176 -0.073973 0.971387 0.221281 -0.086262 
4.981540 1.265400 -0.066588 0.968011 0.235394 -0.086857 
4.965228 1.338081 -0.061920 0.964591 0.249704 -0.084925 
4.944949 1.418990 -0.060202 0.959857 0.267837 -0.083299 
4.918265 1.488870 -0.054050 0.955618 0.282430 -0.083826 
4.901990 1.569169 -0.045125 0.951060 0.297938 -0.081965 
4.874518 1.638257 -0.032723 0.947478 0.309727 -0.079719 
4.852409 1.712377 -0.035720 0.942132 0.325464 -0.080378 
4.829818 1.790428 -0.022874 0.936955 0.340590 -0.078190 
4.803430 1.868675 -0.021701 0.931279 0.355725 -0.078606 
4.776921 1.941516 -0.008656 0.925490 0.370999 -0.076343 
4.742366 2.011308 -0.006275 0.919384 0.386330 -0.074035 
4.709447 2.083428 0.000267 0.913770 0.399351 -0.074455 
4.677840 2.155204 0.003496 0.907065 0.414775 -0.072076 
4.651918 2.223638 0.012534 0.901969 0.425664 -0.072541 
4.618234 2.292948 0.021326 0.894688 0.441159 -0.070091 
4.581811 2.366180 0.026761 0.887663 0.455529 -0.067435 
4.544137 2.431625 0.035267 0.880746 0.468717 -0.067750 
4.507191 2.502415 0.045196 0.872713 0.484224 -0.062436 
4.466249 2.576414 0.054167 0.865246 0.497412 -0.062699 
4.427298 2.639898 0.061057 0.857179 0.511520 -0.059933 
4.387743 2.710257 0.065368 0.849342 0.524717 -0.057369 
4.350870 2.775972 0.069658 0.840965 0.537712 -0.060370 
4.309360 2.837879 0.075981 0.833600 0.549642 -0.054824 
4.258488 2.906912 0.089050 0.823703 0.564624 -0.052097 
4.216136 2.968924 0.097561 0.815779 0.576258 -0.049313 
4.177770 3.036268 0.098857 0.806585 0.589047 -0.049440 
4.128868 3.093621 0.113439 0.797144 0.601752 -0.049556 
4.084431 3.154096 0.117699 0.788643 0.613074 -0.046724 
4.033163 3.218272 0.126398 0.777384 0.627288 -0.046728 
3.980899 3.282290 0.135111 0.767362 0.639705 -0.043971 
3.935115 3.338136 0.139218 0.759524 0.648790 -0.046849 
3.879097 3.402919 0.150736 0.746448 0.663983 -0.044076 
3.825119 3.461495 0.156985 0.736970 0.674491 -0.044019 
3.775218 3.510385 0.168278 0.727459 0.684918 -0.041123 
3.726733 3.570971 0.177438 0.716368 0.696509 -0.041138 
3.662931 3.627404 0.179080 0.705088 0.707925 -0.041142 
3.612621 3.684402 0.189040 0.693627 0.719159 -0.041135 
3.550899 3.738375 0.198793 0.680660 0.731603 -0.038208 
3.503188 3.792370 0.205390 0.670274 0.741127 -0.038261 
3.442465 3.839980 0.220387 0.658594 0.751672 -0.035257 
3.380620 3.896483 0.229122 0.645226 0.763307 -0.032332 
3.317951 3.939245 0.236736 0.636114 0.770919 -0.032297 
3.257687 3.988701 0.242074 0.623911 0.780940 -0.029443 
3.204862 4.037936 0.251865 0.613337 0.789375 -0.026545 
3.142869 4.087485 0.263476 0.599610 0.799943 -0.023650 
3.078237 4.136037 0.263850 0.587100 0.809171 -0.023595 
3.016162 4.178245 0.277647 0.575097 0.817824 -0.020687 
2.944946 4.226961 0.283301 0.560607 0.827824 -0.020661 
2.879921 4.271744 0.299739 0.546654 0.837106 -0.020551 
2.819376 4.313408 0.303749 0.535908 0.844090 -0.017727 
2.752977 4.350880 0.307614 0.523205 0.852076 -0.014949 
2.688180 4.395089 0.318080 0.509283 0.860513 -0.012158 
2.619404 4.430199 0.324817 0.495380 0.868593 -0.012082 
2.548348 4.472980 0.338845 0.481539 0.876375 -0.009337 
2.480525 4.506922 0.351690 0.468854 0.883251 -0.006641 
2.411289 4.541592 0.354879 0.454065 0.890920 -0.009267 
2.345606 4.581637 0.364020 0.442471 0.896759 -0.006565 
2.272223 4.610962 0.373582 0.425734 0.904847 -0.001302 
2.198669 4.640127 0.378527 0.412244 0.911072 -0.001292 
2.128828 4.675628 0.389728 0.399807 0.916599 0.001286 
2.059620 4.710343 0.397071 0.383066 0.923713 0.003843 
1.983573 4.735452 0.408631 0.367656 0.929954 0.003817 
1.912133 4.759892 0.419428 0.353197 0.935528 0.006330 
1.838420 4.791227 0.428727 0.338795 0.940819 0.008816 
1.766619 4.815739 0.436303 0.325224 0.945536 0.013813 
1.691055 4.835912 0.439472 0.310200 0.950533 0.016195 
1.617151 4.860721 0.451904 0.293092 0.955949 0.016077 
1.545811 4.881925 0.460753 0.279055 0.960098 0.018440 
1.466963 4.907648 0.465914 0.264517 0.964208 0.018285 
1.394563 4.923753 0.472060 0.250728 0.967784 0.023014 
1.315411 4.948829 0.487576 0.234786 0.971653 0.027693 
1.243266 4.959743 0.494315 0.220764 0.974941 0.027446 
1.164524 4.978751 0.498811 0.204668 0.978384 0.029576 
1.086907 4.992494 0.510964 0.188796 0.981506 0.031661 
1.007822 5.006947 0.515262 0.173169 0.984392 0.031380 
0.933927 5.016159 0.529992 0.158462 0.986627 0.038170 
0.852806 5.035789 0.535146 0.142599 0.989064 0.037646 
0.780312 5.047622 0.541826 0.130217 0.990781 0.037367 
0.701050 5.047937 0.548682 0.113049 0.992817 0.039175 
0.621255 5.064224 0.563936 0.096447 0.994399 0.043235 
0.539604 5.064213 0.568686 0.079803 0.995898 0.042635 
0.469712 5.072528 0.576388 0.065886 0.996938 0.042124 
0.391028 5.073201 0.587785 0.050258 0.997677 0.045981 
0.308810 5.077718 0.594904 0.032550 0.998543 0.043050 
0.227782 5.080838 0.606128 0.015557 0.998789 0.046672 
0.156738 5.083888 0.605660 0.001020 0.998945 0.045917 
0.074137 5.080223 0.622030 -0.013535 0.998497 0.053100 
-0.006277 5.081109 0.621872 -0.032743 0.998123 0.051755 
-0.081615 5.073953 0.637405 -0.046167 0.997432 0.054757 
-0.156064 5.066868 0.635699 -0.061818 0.996672 0.053141 
-0.236976 5.060890 0.646360 -0.075912 0.995656 0.053908 
-0.316476 5.057920 0.656193 -0.092602 0.994076 0.056900 
-0.393566 5.051147 0.658453 -0.107514 0.992527 0.057718 
-0.471092 5.039857 0.669260 -0.122816 0.990563 0.060834 
-0.544024 5.024351 0.677550 -0.137909 0.988539 0.061422 
-0.628729 5.014118 0.683050 -0.153635 0.986316 0.059812 
-0.697690 5.000809 0.691092 -0.166979 0.984109 0.060397 
-0.775688 4.991404 0.703337 -0.183669 0.980768 0.066025 
-0.854655 4.974028 0.702160 -0.197138 0.978433 0.061681 
-0.928449 4.952935 0.712417 -0.214013 0.974678 0.064815 
-1.003534 4.934987 0.715617 -0.228891 0.971241 0.065574 
-1.080306 4.924602 0.726620 -0.243432 0.967485 0.068660 
-1.162136 4.903805 0.732072 -0.258848 0.963418 0.069447 
-1.235460 4.878315 0.739753 -0.274499 0.958830 0.072774 
-1.312853 4.860285 0.744791 -0.292172 0.953742 0.070791 
-1.385793 4.836875 0.749520 -0.306866 0.949085 0.071214 
-1.462832 4.808636 0.754308 -0.323187 0.943392 0.074582 
-1.535527 4.782231 0.764481 -0.336637 0.938623 0.075248 
-1.601211 4.748591 0.773620 -0.349387 0.933914 0.075723 
-1.674205 4.729770 0.773995 -0.364550 0.928068 0.076115 
-1.749524 4.693267 0.783350 -0.378327 0.922257 0.079435 
-1.826449 4.667429 0.787243 -0.392326 0.916332 0.080094 
-1.897287 4.629014 0.789000 -0.406371 0.909888 0.083463 
-1.964438 4.600851 0.798095 -0.420532 0.903110 0.086864 
-2.040581 4.568696 0.805516 -0.436175 0.895889 0.084466 
-2.101383 4.530034 0.812978 -0.449384 0.889028 0.087651 
-2.179892 4.491787 0.817805 -0.466179 0.880560 0.085396 
-2.241999 4.454254 0.820482 -0.480610 0.872427 0.088793 
-2.315403 4.419947 0.819942 -0.492803 0.865582 0.088959 
-2.376184 4.379682 0.826417 -0.504056 0.859026 0.089452 
-2.442501 4.338944 0.836996 -0.519522 0.849739 0.089671 
-2.510426 4.292779 0.836880 -0.531939 0.841639 0.093197 
-2.583895 4.252348 0.840949 -0.546133 0.832817 0.090305 
-2.640248 4.209344 0.841324 -0.556065 0.826195 0.090522 
-2.706594 4.168242 0.847133 -0.570445 0.815954 0.093871 
-2.774498 4.121938 0.860052 -0.583578 0.806583 0.094126 
-2.835975 4.070711 0.862220 -0.595967 0.797052 0.097628 
-2.895869 4.024800 0.866477 -0.610803 0.785735 0.097670 
-2.962853 3.974902 0.866556 -0.623654 0.775551 0.097857 
-3.024340 3.927980 0.866682 -0.633212 0.767751 0.097980 
-3.084293 3.874209 0.875664 -0.646023 0.757356 0.095219 
-3.141775 3.819682 0.878180 -0.656658 0.747738 0.098425 
-3.193159 3.769221 0.878933 -0.668838 0.736457 0.101428 
-3.252552 3.715364 0.883171 -0.681246 0.725387 0.098582 
-3.312437 3.662300 0.884901 -0.691332 0.714917 0.104658 
-3.366470 3.609234 0.888507 -0.700268 0.706165 0.104672 
-3.424971 3.550928 0.887029 -0.713678 0.693077 0.101534 
-3.479026 3.499235 0.899165 -0.723554 0.682292 0.104628 
-3.534475 3.436199 0.892694 -0.734884 0.670084 0.104563 
-3.580135 3.376168 0.897667 -0.744450 0.658949 0.107614 
-3.632422 3.322524 0.902076 -0.755613 0.646616 0.104578 
-3.679777 3.264022 0.898604 -0.764849 0.635164 0.107580 
-3.733883 3.195065 0.905450 -0.776516 0.620919 0.107156 
-3.782385 3.139091 0.907726 -0.785555 0.610012 0.103863 
-3.826513 3.077404 0.911851 -0.795587 0.596324 0.106957 
-3.873622 3.010386 0.911807 -0.804193 0.585266 0.103626 
-3.924611 2.943398 0.908886 -0.813681 0.572051 0.103348 
-3.970171 2.885482 0.911509 -0.821567 0.560752 0.102877 
-4.004814 2.822057 0.917373 -0.829391 0.548585 0.105664 
-4.055570 2.749189 0.916477 -0.839431 0.533133 0.105471 
-4.089569 2.681962 0.911656 -0.846611 0.521766 0.104928 
-4.129338 2.619636 0.918583 -0.854811 0.508304 0.104525 
-4.177114 2.553974 0.914409 -0.863691 0.492518 0.107069 
-4.212707 2.483340 0.914828 -0.871573 0.479152 0.103793 
-4.249466 2.414748 0.920548 -0.878660 0.465506 0.106118 
-4.289275 2.341281 0.914016 -0.886592 0.449639 0.108534 
-4.324350 2.274303 0.920506 -0.892521 0.437124 0.111038 
-4.353611 2.197850 0.916132 -0.899867 0.422728 0.107426 
-4.389412 2.134876 0.919515 -0.906363 0.407933 0.109989 
-4.414996 2.061175 0.916483 -0.911339 0.396896 0.109250 
-4.453585 1.989289 0.915184 -0.917773 0.381144 0.111454 
-4.477398 1.911026 0.917425 -0.924557 0.364633 0.110619 
-4.508371 1.836465 0.917777 -0.929939 0.349918 0.113009 
-4.539538 1.762438 0.913514 -0.935173 0.336015 0.112005 
-4.560630 1.694293 0.915957 -0.939801 0.323098 0.111275 
-4.584835 1.614187 0.912736 -0.944971 0.307882 0.110624 
-4.614529 1.541846 0.910469 -0.950265 0.289441 0.114983 
-4.629130 1.465432 0.908752 -0.955293 0.273877 0.111385 
-4.653332 1.395212 0.904698 -0.959702 0.258431 0.110385 
-4.674573 1.312753 0.903755 -0.963790 0.243199 0.109375 
-4.689591 1.239204 0.905937 -0.967569 0.228188 0.108357 
-4.712618 1.161960 0.902141 -0.970784 0.213345 0.109829 
-4.725332 1.090780 0.894704 -0.973367 0.201689 0.108987 
-4.743278 1.006763 0.896579 -0.977358 0.182093 0.107769 
-4.761868 0.934802 0.898091 -0.979631 0.168393 0.109394 
-4.772278 0.859968 0.888181 -0.982457 0.153850 0.105393 
-4.784506 0.780426 0.888630 -0.984521 0.140646 0.104583 
-4.795612 0.703644 0.885239 -0.986865 0.124395 0.103070 
-4.801731 0.621224 0.881654 -0.989117 0.108604 0.099262 
-4.809012 0.542239 0.876579 -0.989986 0.098650 0.100972 
-4.812932 0.463748 0.875134 -0.990464 0.088992 0.105172 
-4.820603 0.392249 0.876987 -0.991134 0.081731 0.104754 
-4.828367 0.313654 0.867492 -0.991784 0.074355 0.104097 
-4.833088 0.233867 0.866005 -0.992817 0.064527 0.100753 
-4.836599 0.153286 0.866990 -0.993159 0.059747 0.100330 
5.122730 0.099400 -0.103913 0.994276 0.049992 -0.094428 
5.121983 0.174512 -0.098575 0.994076 0.056900 -0.092602 
5.117265 0.255851 -0.094433 0.993415 0.066378 -0.093379 
5.118523 0.328326 -0.090545 0.992852 0.073587 -0.093964 
5.109285 0.406825 -0.081871 0.992440 0.080899 -0.092294 
5.104855 0.490122 -0.081636 0.992002 0.088102 -0.090390 
5.099099 0.569291 -0.077948 0.991284 0.097635 -0.088446 
5.094786 0.647661 -0.066837 0.990024 0.112582 -0.084727 
5.080393 0.722020 -0.068545 0.988199 0.125430 -0.087918 
5.068223 0.800844 -0.058919 0.986180 0.141222 -0.086632 
5.063540 0.878269 -0.054545 0.984200 0.156659 -0.082515 
5.043568 0.951624 -0.051263 0.981740 0.172256 -0.080707 
5.034032 1.035137 -0.045563 0.978597 0.188895 -0.081651 
5.023590 1.114463 -0.042343 0.975699 0.203014 -0.082436 
5.002273 1.184043 -0.027909 0.972399 0.219814 -0.078239 
4.985564 1.265076 -0.032005 0.968928 0.234398 -0.078968 
4.971900 1.342753 -0.021043 0.964557 0.251569 -0.079642 
4.946229 1.413801 -0.020180 0.961034 0.266034 -0.075101 
4.924847 1.494542 -0.009512 0.956240 0.281853 -0.078507 
4.907228 1.561562 0.000488 0.951942 0.296592 -0.076414 
4.884356 1.643999 0.002097 0.947937 0.309025 -0.076930 
4.856424 1.717490 0.009698 0.942299 0.326332 -0.074702 
4.829689 1.790342 0.013106 0.937467 0.339815 -0.075368 
4.801105 1.857325 0.025741 0.931823 0.354917 -0.075769 
4.777339 1.933903 0.029866 0.927161 0.368470 -0.067841 
4.745780 2.005999 0.035256 0.921509 0.382285 -0.068409 
4.717390 2.079870 0.038019 0.914192 0.399875 -0.065973 
4.684786 2.150803 0.048848 0.908361 0.412892 -0.066333 
4.651589 2.221012 0.056416 0.901772 0.427011 -0.066848 
4.616055 2.295907 0.065867 0.895181 0.441440 -0.061501 
4.584619 2.365945 0.067678 0.886710 0.457790 -0.064613 
4.550146 2.430514 0.074204 0.881680 0.467746 -0.062090 
4.511754 2.501288 0.085461 0.874314 0.482047 -0.056630 
4.469756 2.573657 0.093852 0.865035 0.498471 -0.056928 
4.435868 2.633096 0.096054 0.858918 0.509246 -0.054116 
4.390127 2.706223 0.106892 0.849908 0.524411 -0.051467 
4.348380 2.771354 0.116684 0.840913 0.538688 -0.051770 
4.314990 2.834054 0.120328 0.833413 0.550473 -0.049024 
4.264472 2.899230 0.132114 0.824426 0.564081 -0.046190 
4.226472 2.967030 0.137458 0.815610 0.576963 -0.043518 
4.178365 3.029341 0.141262 0.807423 0.588365 -0.043531 
4.127242 3.089568 0.150702 0.797029 0.602356 -0.043731 
4.086255 3.151324 0.157738 0.788539 0.613622 -0.040908 
4.034966 3.219156 0.167066 0.778601 0.625989 -0.043805 
3.990591 3.273665 0.176311 0.769772 0.637004 -0.040960 
3.939959 3.337424 0.183641 0.759601 0.649267 -0.038192 
3.884288 3.398533 0.195548 0.747722 0.662914 -0.038164 
3.836181 3.455787 0.201863 0.738352 0.673162 -0.041098 
3.783617 3.512958 0.202087 0.726129 0.686496 -0.038217 
3.726648 3.570778 0.212254 0.716488 0.696704 -0.035330 
3.671786 3.625919 0.220958 0.705251 0.708077 -0.035333 
3.613837 3.676566 0.232091 0.693833 0.719269 -0.035328 
3.564300 3.736468 0.240222 0.683876 0.728997 -0.029611 
3.506668 3.791304 0.250603 0.672168 0.739807 -0.029592 
3.449165 3.842724 0.258075 0.658914 0.751640 -0.029504 
3.390168 3.888714 0.266851 0.648597 0.760666 -0.026616 
3.326647 3.939456 0.272705 0.636557 0.770863 -0.023783 
3.262558 3.985997 0.278710 0.624305 0.780730 -0.026536 
3.207001 4.036630 0.291679 0.610720 0.791571 -0.020867 
3.139528 4.081026 0.295059 0.600124 0.799704 -0.018018 
3.081573 4.133602 0.313039 0.588186 0.808584 -0.015152 
3.019166 4.176389 0.320060 0.573858 0.818815 -0.015138 
2.956236 4.220663 0.329880 0.563166 0.826252 -0.012332 
2.886900 4.269134 0.339171 0.547392 0.836786 -0.012286 
2.820546 4.309559 0.338238 0.536659 0.843710 -0.012228 
2.752885 4.348301 0.355320 0.522804 0.852426 -0.006755 
2.693310 4.385696 0.358048 0.510123 0.860075 -0.006730 
2.618924 4.432792 0.366657 0.494251 0.869293 -0.006697 
2.553582 4.466098 0.375236 0.481550 0.876393 -0.006670 
2.479724 4.506214 0.384666 0.466669 0.884423 -0.003966 
2.411873 4.540983 0.390949 0.452981 0.891519 -0.001313 
2.345790 4.579544 0.399515 0.441440 0.897290 -0.001310 
2.276343 4.611465 0.408125 0.427862 0.903843 0.001300 
2.205409 4.637427 0.419542 0.413214 0.910626 0.003886 
2.133895 4.674194 0.433212 0.397337 0.917628 0.009060 
2.064428 4.699656 0.435297 0.383961 0.923305 0.008989 
1.984470 4.732476 0.447279 0.368516 0.929579 0.008926 
1.919324 4.761646 0.453435 0.354861 0.934849 0.011447 
1.837412 4.791763 0.465947 0.337344 0.941279 0.013898 
1.770200 4.816207 0.476503 0.325986 0.945233 0.016362 
1.690897 4.841136 0.485729 0.309384 0.950699 0.021294 
1.616520 4.858262 0.495853 0.295141 0.955161 0.023661 
1.548935 4.886970 0.499594 0.282623 0.958944 0.023449 
1.465519 4.909540 0.508333 0.263445 0.964331 0.025732 
1.393994 4.922422 0.515237 0.249596 0.967945 0.028003 
1.322980 4.947298 0.526547 0.235855 0.971239 0.032657 
1.245916 4.956707 0.538074 0.221764 0.974563 0.032366 
1.165534 4.973701 0.543221 0.203311 0.978507 0.034480 
1.094739 4.994446 0.550606 0.190078 0.981087 0.036599 
1.016761 5.011149 0.559277 0.174323 0.983931 0.038608 
0.940182 5.014322 0.567595 0.158810 0.986475 0.040572 
0.860587 5.031531 0.580831 0.143530 0.988632 0.044781 
0.780085 5.043393 0.581281 0.128255 0.990852 0.041995 
0.708043 5.054491 0.590773 0.113775 0.992432 0.046186 
0.627575 5.061232 0.605461 0.096854 0.994147 0.047870 
0.551829 5.061542 0.607932 0.082489 0.995362 0.049493 
0.466546 5.072285 0.613590 0.068466 0.996558 0.046731 
0.388005 5.074665 0.629465 0.048218 0.997567 0.050361 
0.309653 5.079870 0.634184 0.032743 0.998123 0.051755 
0.233026 5.076229 0.638156 0.017701 0.998541 0.051020 
0.155311 5.074229 0.647315 0.001030 0.998507 0.054614 
0.081078 5.073150 0.658108 -0.013534 0.998385 0.055177 
0.001635 5.079483 0.666749 -0.030751 0.997824 0.058321 
-0.075909 5.075896 0.674312 -0.046162 0.997312 0.056897 
-0.153437 5.068916 0.676319 -0.062198 0.996258 0.060016 
-0.235823 5.059292 0.685227 -0.078596 0.995179 0.058670 
-0.307764 5.059565 0.699473 -0.090958 0.993796 0.064007 
-0.384804 5.047602 0.703362 -0.105485 0.992462 0.062383 
-0.469588 5.037121 0.709279 -0.123322 0.990034 0.068000 
-0.543511 5.027123 0.716214 -0.135905 0.988507 0.066210 
-0.622109 5.018459 0.722871 -0.151627 0.986165 0.066998 
-0.694019 5.006846 0.728585 -0.165011 0.984128 0.065292 
-0.771258 4.984990 0.737714 -0.181746 0.980949 0.068606 
-0.850291 4.973033 0.750121 -0.196078 0.977952 0.071855 
-0.924443 4.958270 0.747168 -0.209770 0.975247 0.069923 
-0.999498 4.941598 0.760432 -0.227521 0.971006 0.073354 
-1.082863 4.919489 0.765661 -0.245120 0.966652 0.074164 
-1.150923 4.899603 0.767353 -0.257022 0.963514 0.074701 
-1.229754 4.878129 0.781461 -0.275066 0.958253 0.078042 
-1.307409 4.854488 0.789707 -0.291077 0.953439 0.078914 
-1.383663 4.828745 0.787718 -0.305906 0.948959 0.076802 
-1.459565 4.803206 0.792801 -0.321505 0.943518 0.080048 
-1.527636 4.779097 0.799703 -0.334986 0.938755 0.080767 
-1.600802 4.755744 0.806362 -0.347770 0.934050 0.081280 
-1.678048 4.723435 0.812876 -0.363802 0.927629 0.084574 
-1.750249 4.695273 0.818901 -0.376872 0.922593 0.082399 
-1.815764 4.664825 0.822544 -0.390823 0.916459 0.085790 
-1.890938 4.635608 0.831911 -0.407192 0.908984 0.089116 
-1.966626 4.599685 0.834133 -0.421479 0.902379 0.089823 
-2.035285 4.565619 0.847098 -0.434687 0.895762 0.093048 
-2.102785 4.527247 0.847776 -0.451504 0.887631 0.090860 
-2.166996 4.492668 0.856836 -0.463753 0.881271 0.091069 
-2.242151 4.457296 0.863850 -0.479371 0.872483 0.094743 
-2.311178 4.415079 0.864227 -0.491739 0.865857 0.092112 
-2.379466 4.378646 0.868718 -0.505023 0.857827 0.095314 
-2.441489 4.335589 0.869599 -0.518422 0.849755 0.095687 
-2.507994 4.291728 0.878314 -0.531794 0.841410 0.096038 
-2.575726 4.255126 0.882399 -0.543102 0.834101 0.096519 
-2.642432 4.208043 0.889207 -0.556264 0.825004 0.099694 
-2.710062 4.166261 0.888041 -0.569681 0.816108 0.097121 
-2.764731 4.113197 0.895483 -0.582867 0.806711 0.097387 
-2.834230 4.070430 0.894217 -0.595795 0.796822 0.100513 
-2.895374 4.026249 0.900714 -0.608794 0.786907 0.100736 
-2.960500 3.971675 0.906083 -0.623098 0.775574 0.101162 
-3.020354 3.929548 0.908432 -0.632695 0.767748 0.101290 
-3.078533 3.873639 0.917536 -0.645179 0.756873 0.104346 
-3.138761 3.818377 0.912629 -0.657709 0.745992 0.104468 
-3.196207 3.765519 0.922246 -0.668456 0.736335 0.104769 
-3.247485 3.718477 0.921552 -0.677452 0.727633 0.107743 
-3.303723 3.662525 0.928121 -0.689572 0.716151 0.107792 
-3.367496 3.608978 0.930240 -0.700002 0.705922 0.108034 
-3.416326 3.552256 0.933397 -0.711561 0.693809 0.110950 
-3.474158 3.491483 0.930530 -0.723143 0.681736 0.110911 
-3.529411 3.433199 0.941094 -0.734511 0.669484 0.110842 
-3.581192 3.374485 0.944134 -0.744341 0.658512 0.110985 
-3.630797 3.322837 0.942800 -0.755307 0.645928 0.110857 
-3.681668 3.262315 0.946711 -0.765781 0.632986 0.113613 
-3.728925 3.199633 0.942635 -0.773664 0.623352 0.113471 
-3.773926 3.136371 0.948531 -0.784215 0.610599 0.110349 
-3.826744 3.073937 0.949872 -0.793994 0.597330 0.113008 
-3.872999 3.011759 0.949431 -0.802730 0.585538 0.112999 
-3.918216 2.943473 0.949902 -0.812290 0.572262 0.112696 
-3.963570 2.880748 0.954674 -0.822526 0.557571 0.112096 
-4.004814 2.819289 0.957521 -0.829281 0.547529 0.111829 
-4.048892 2.749023 0.952141 -0.838048 0.534093 0.111450 
-4.093307 2.679191 0.956572 -0.846540 0.520615 0.111045 
-4.134259 2.612040 0.956587 -0.856000 0.504968 0.110776 
-4.171555 2.553144 0.956738 -0.861960 0.494802 0.110434 
-4.212730 2.478455 0.956293 -0.871546 0.477853 0.109835 
-4.247456 2.415606 0.954873 -0.877694 0.465163 0.115224 
-4.282859 2.340852 0.953775 -0.884816 0.451610 0.114672 
-4.321106 2.274525 0.962533 -0.892762 0.435803 0.114240 
-4.349280 2.197102 0.953552 -0.900123 0.421364 0.110591 
-4.379680 2.126646 0.961528 -0.906323 0.406379 0.115909 
-4.412051 2.052093 0.951926 -0.912300 0.392970 0.115253 
-4.442859 1.983824 0.951883 -0.917284 0.380472 0.117601 
-4.477487 1.910521 0.951134 -0.924106 0.363875 0.116715 
-4.505287 1.836756 0.955815 -0.929278 0.350697 0.115989 
-4.532920 1.761810 0.949471 -0.933907 0.337508 0.117924 
-4.560553 1.693637 0.948886 -0.939409 0.322121 0.117258 
-4.583587 1.620627 0.950541 -0.944591 0.305956 0.118909 
-4.606903 1.540548 0.946275 -0.949453 0.290812 0.118184 
-4.627438 1.464549 0.952356 -0.954256 0.275089 0.117143 
-4.653084 1.394804 0.948195 -0.958721 0.259572 0.116090 
-4.673469 1.314356 0.941796 -0.963049 0.243663 0.114741 
-4.691065 1.235761 0.946038 -0.966856 0.228622 0.113673 
-4.706095 1.159804 0.944782 -0.969785 0.214802 0.115662 
-4.720192 1.089354 0.940934 -0.972553 0.202563 0.114492 
-4.735179 1.006969 0.939767 -0.976148 0.185282 0.113159 
-4.758603 0.933445 0.930260 -0.979264 0.168754 0.112092 
-4.762849 0.857336 0.926360 -0.981770 0.154504 0.110708 
-4.777966 0.777190 0.927101 -0.983930 0.138837 0.112277 
-4.793047 0.696977 0.928896 -0.986534 0.122573 0.108293 
-4.796268 0.618057 0.919627 -0.988792 0.106738 0.104392 
-4.806555 0.546056 0.920499 -0.989640 0.096749 0.106075 
-4.815871 0.459109 0.921684 -0.990378 0.086875 0.107725 
-4.817017 0.387023 0.914433 -0.990892 0.081711 0.107030 
-4.826612 0.306366 0.907605 -0.991545 0.074337 0.106360 
-4.827675 0.226506 0.911245 -0.992284 0.064788 0.105707 
-4.831166 0.150428 0.898051 -0.993159 0.059747 0.100330 
5.125602 0.093136 -0.063820 0.994276 0.049992 -0.094428 
5.120404 0.178062 -0.057048 0.994076 0.056900 -0.092602 
5.126264 0.253988 -0.049356 0.993415 0.066378 -0.093379 
5.122868 0.327201 -0.048614 0.993092 0.073437 -0.091514 
5.117240 0.406137 -0.038405 0.992713 0.080552 -0.089628 
5.109315 0.488452 -0.037717 0.992275 0.087721 -0.087721 
5.108149 0.566254 -0.035293 0.991522 0.097433 -0.085970 
5.095938 0.639588 -0.032091 0.990325 0.110036 -0.084554 
5.090662 0.721348 -0.024979 0.988357 0.127492 -0.083045 
5.071858 0.794949 -0.017361 0.986701 0.140620 -0.081536 
5.067783 0.876068 -0.018855 0.984275 0.156291 -0.082321 
5.049257 0.956442 -0.005768 0.981740 0.172256 -0.080707 
5.038175 1.032780 -0.008266 0.978789 0.188932 -0.079229 
5.024251 1.110802 0.000922 0.976200 0.202607 -0.077359 
5.005368 1.181686 0.011035 0.972719 0.219326 -0.075587 
4.991696 1.257928 0.010962 0.969420 0.233310 -0.076106 
4.967085 1.337752 0.017806 0.965107 0.251054 -0.074433 
4.955482 1.413897 0.024975 0.961227 0.265385 -0.074917 
4.929153 1.487383 0.034790 0.956358 0.282939 -0.072975 
4.906466 1.562575 0.040145 0.952369 0.295919 -0.073657 
4.882292 1.641082 0.037458 0.947624 0.310675 -0.074094 
4.861992 1.709549 0.052182 0.942772 0.325590 -0.071917 
4.829939 1.788009 0.057789 0.937623 0.340595 -0.069697 
4.805198 1.857184 0.064246 0.932172 0.355680 -0.067434 
4.782261 1.934054 0.065453 0.927161 0.368470 -0.067841 
4.746817 2.004055 0.074970 0.920727 0.384641 -0.065670 
4.721031 2.076457 0.084800 0.915770 0.396699 -0.063203 
4.683843 2.152248 0.083956 0.908521 0.412964 -0.063637 
4.651502 2.216643 0.091465 0.901392 0.428263 -0.063900 
4.620123 2.286768 0.104724 0.895722 0.440362 -0.061351 
4.589871 2.356294 0.108617 0.888176 0.455720 -0.058847 
4.555594 2.431544 0.113215 0.881304 0.468837 -0.059120 
4.512429 2.496603 0.118948 0.874314 0.482047 -0.056630 
4.479574 2.566955 0.132372 0.866555 0.496162 -0.053901 
4.439837 2.640206 0.135894 0.857829 0.511371 -0.051276 
4.401448 2.707463 0.143071 0.850027 0.524484 -0.048692 
4.357546 2.773330 0.149549 0.841848 0.537498 -0.048863 
4.311656 2.839275 0.157535 0.833095 0.551210 -0.046050 
4.272593 2.895360 0.171628 0.825423 0.562852 -0.043296 
4.225513 2.963135 0.170746 0.816547 0.575644 -0.043418 
4.176910 3.026954 0.179796 0.807518 0.588435 -0.040727 
4.135196 3.094947 0.186848 0.796887 0.602936 -0.037947 
4.083258 3.155970 0.199795 0.787262 0.615445 -0.038025 
4.039084 3.216469 0.207723 0.778516 0.626473 -0.038011 
3.989292 3.271619 0.211683 0.769858 0.637075 -0.038140 
3.943424 3.339936 0.219818 0.758285 0.650967 -0.035302 
3.891224 3.391622 0.233235 0.749042 0.661583 -0.035266 
3.833411 3.449133 0.234090 0.738392 0.673447 -0.035296 
3.780038 3.509780 0.251225 0.727608 0.685223 -0.032495 
3.729115 3.565040 0.257386 0.716557 0.696771 -0.032507 
3.678053 3.620004 0.264581 0.706734 0.706734 -0.032445 
3.620229 3.679862 0.270829 0.694015 0.719354 -0.029562 
3.561718 3.727177 0.277471 0.682471 0.730315 -0.029550 
3.507575 3.783287 0.292018 0.672364 0.739740 -0.026670 
3.453087 3.835449 0.298015 0.658966 0.751699 -0.026696 
3.392539 3.886414 0.302750 0.647263 0.761897 -0.023766 
3.328383 3.937694 0.317006 0.635225 0.772043 -0.020941 
3.269324 3.986077 0.319023 0.624762 0.780605 -0.018089 
3.211611 4.033455 0.332202 0.612494 0.790269 -0.018055 
3.142619 4.085593 0.338274 0.600616 0.799441 -0.012427 
3.079353 4.130435 0.349729 0.586900 0.809565 -0.012370 
3.015275 4.178686 0.352785 0.574430 0.818460 -0.012339 
2.955581 4.217280 0.368404 0.561893 0.827118 -0.012304 
2.894164 4.264703 0.376881 0.549316 0.835560 -0.009541 
2.822299 4.303470 0.386735 0.535459 0.844534 -0.006778 
2.758163 4.345655 0.391248 0.523567 0.851975 -0.004038 
2.692136 4.388826 0.403955 0.508951 0.860786 -0.004029 
2.626148 4.422838 0.412739 0.495132 0.868817 -0.001335 
2.561097 4.460454 0.421437 0.482479 0.875906 -0.001329 
2.484685 4.500941 0.424181 0.468736 0.883337 -0.001320 
2.423511 4.535680 0.435388 0.454044 0.890978 0.001316 
2.349708 4.574624 0.442651 0.441437 0.897283 0.003930 
2.277790 4.605836 0.452078 0.426730 0.904355 0.006525 
2.211761 4.638916 0.459029 0.412022 0.911128 0.009098 
2.138840 4.669588 0.470855 0.397337 0.917628 0.009060 
2.062400 4.704862 0.475385 0.382667 0.923813 0.011596 
1.994629 4.728953 0.489692 0.371132 0.928473 0.014126 
1.922097 4.762197 0.496364 0.353451 0.935306 0.016588 
1.849291 4.782232 0.505503 0.341172 0.939808 0.019024 
1.774588 4.812894 0.515209 0.326749 0.944922 0.018924 
1.697258 4.840698 0.527388 0.309367 0.950645 0.023797 
1.620210 4.862869 0.528346 0.295123 0.955101 0.026150 
1.548561 4.883874 0.541821 0.280980 0.959291 0.028469 
1.471505 4.899256 0.551465 0.264659 0.963851 0.030774 
1.398758 4.926021 0.556362 0.250148 0.967647 0.032946 
1.325382 4.938036 0.566409 0.236391 0.971022 0.035156 
1.243789 4.963509 0.573791 0.219960 0.974797 0.037261 
1.167289 4.974180 0.579820 0.203767 0.978322 0.036940 
1.093305 4.994083 0.593779 0.188202 0.981256 0.041428 
1.021646 5.007668 0.598021 0.174692 0.983667 0.043380 
0.935888 5.017122 0.606161 0.159158 0.986317 0.042984 
0.863730 5.025395 0.612107 0.143856 0.988580 0.044883 
0.780258 5.035983 0.622345 0.128794 0.990460 0.049010 
0.710521 5.044220 0.627688 0.114018 0.992292 0.048542 
0.625916 5.053395 0.644958 0.097058 0.994012 0.050203 
0.549102 5.057757 0.652419 0.082670 0.995342 0.049602 
0.472109 5.063358 0.659023 0.068600 0.996331 0.051178 
0.394231 5.069228 0.665634 0.050560 0.997213 0.054863 
0.314286 5.079059 0.672616 0.035070 0.997914 0.054200 
0.242422 5.077368 0.685475 0.017806 0.998181 0.057607 
0.162950 5.074419 0.690108 0.001034 0.998260 0.058965 
0.081317 5.075267 0.698981 -0.013589 0.998254 0.057491 
0.005610 5.070400 0.703830 -0.028689 0.997752 0.060566 
-0.070254 5.073476 0.707969 -0.046349 0.997034 0.061439 
-0.145602 5.068881 0.720939 -0.060146 0.996241 0.062333 
-0.224602 5.057679 0.727371 -0.076543 0.995059 0.063231 
-0.305473 5.050477 0.736358 -0.093379 0.993415 0.066378 
-0.381914 5.047998 0.744861 -0.105930 0.992100 0.067203 
-0.465198 5.036563 0.751000 -0.121309 0.990110 0.070475 
-0.535438 5.028408 0.758820 -0.136488 0.988083 0.071161 
-0.620188 5.014524 0.762475 -0.152309 0.985875 0.069661 
-0.695165 4.997085 0.774486 -0.168049 0.983267 0.070319 
-0.770602 4.987894 0.777972 -0.182114 0.980521 0.073569 
-0.852401 4.970099 0.784252 -0.198418 0.977483 0.071820 
-0.922934 4.957614 0.787824 -0.213056 0.974147 0.075124 
-0.999661 4.937080 0.795024 -0.228029 0.970683 0.076010 
-1.081014 4.918612 0.800980 -0.242661 0.966872 0.079211 
-1.151670 4.899756 0.811586 -0.258180 0.962769 0.080125 
-1.223435 4.875086 0.819029 -0.273256 0.958320 0.083388 
-1.299132 4.852582 0.823398 -0.288646 0.953957 0.081546 
-1.372681 4.829905 0.832264 -0.303418 0.949319 0.082040 
-1.446543 4.802226 0.839348 -0.322234 0.943027 0.082860 
-1.526658 4.775060 0.848128 -0.335672 0.938023 0.086240 
-1.597479 4.750305 0.844716 -0.348481 0.933289 0.086787 
-1.673373 4.718588 0.852621 -0.364626 0.927038 0.087456 
-1.745231 4.687872 0.860023 -0.378583 0.921355 0.088200 
-1.811136 4.660373 0.865699 -0.391707 0.915803 0.088714 
-1.889136 4.624067 0.872733 -0.408108 0.908280 0.092065 
-1.959924 4.592777 0.880654 -0.421372 0.902151 0.092564 
-2.030477 4.566587 0.879302 -0.435771 0.895211 0.093280 
-2.097130 4.529734 0.891848 -0.449158 0.888520 0.093749 
-2.171737 4.493023 0.892534 -0.462574 0.881562 0.094202 
-2.236702 4.454050 0.902648 -0.477058 0.873427 0.097677 
-2.301257 4.410147 0.902282 -0.492682 0.864677 0.097968 
-2.367991 4.376513 0.907472 -0.502760 0.858822 0.098273 
-2.440640 4.333512 0.917795 -0.517443 0.849983 0.098902 
-2.506978 4.292310 0.912900 -0.530868 0.841620 0.099268 
-2.575044 4.253098 0.923353 -0.544255 0.832985 0.099612 
-2.636041 4.202925 0.922307 -0.556264 0.825004 0.099694 
-2.702775 4.156942 0.928826 -0.568735 0.816011 0.103274 
-2.764308 4.113010 0.933695 -0.581970 0.806590 0.103559 
-2.822945 4.070171 0.938831 -0.595119 0.796904 0.103817 
-2.887353 4.021933 0.938183 -0.608170 0.786958 0.104048 
-2.954718 3.974575 0.944608 -0.621112 0.776757 0.104253 
-3.012211 3.923310 0.950872 -0.632504 0.767517 0.104194 
-3.069991 3.867593 0.957409 -0.646414 0.755377 0.107490 
-3.128659 3.816695 0.958183 -0.655829 0.747203 0.107586 
-3.190460 3.764242 0.958496 -0.666609 0.737557 0.107899 
-3.244920 3.714802 0.966531 -0.678689 0.726005 0.110897 
-3.300724 3.656997 0.962826 -0.689257 0.715937 0.111170 
-3.363573 3.602996 0.964618 -0.701004 0.703968 0.114117 
-3.414116 3.544450 0.975641 -0.711322 0.693502 0.114346 
-3.471091 3.494383 0.973118 -0.721486 0.682967 0.114075 
-3.524323 3.434375 0.972888 -0.732901 0.670715 0.114007 
-3.575695 3.378242 0.983867 -0.743967 0.657839 0.117312 
-3.628017 3.314607 0.976792 -0.755056 0.645713 0.113776 
-3.680777 3.252439 0.978252 -0.764296 0.634203 0.116788 
-3.727623 3.191079 0.984244 -0.774823 0.621334 0.116592 
-3.773025 3.135191 0.991006 -0.785099 0.608341 0.116365 
-3.818651 3.067420 0.987325 -0.794033 0.596630 0.116380 
-3.863842 3.006643 0.993825 -0.802461 0.585342 0.115895 
-3.914927 2.944800 0.987646 -0.812019 0.572071 0.115585 
-3.958001 2.877422 0.988648 -0.821308 0.558723 0.115246 
-4.002416 2.813135 0.994979 -0.829419 0.546629 0.115157 
-4.040750 2.743858 0.996624 -0.836908 0.535215 0.114585 
-4.082060 2.685557 0.999832 -0.845444 0.521718 0.114171 
-4.130952 2.617985 0.993432 -0.853887 0.507131 0.117030 
-4.166120 2.548656 1.000819 -0.861883 0.493532 0.116548 
-4.208303 2.477845 0.992446 -0.870296 0.478734 0.115754 
-4.246011 2.410957 0.993916 -0.877038 0.466327 0.115512 
-4.280289 2.334716 0.992746 -0.885040 0.450334 0.117911 
-4.311223 2.273365 0.992929 -0.891895 0.436760 0.117317 
-4.350633 2.202071 1.002016 -0.899245 0.420773 0.119618 
-4.379501 2.123291 0.996174 -0.905524 0.407276 0.118964 
-4.411718 2.053457 0.999847 -0.911536 0.393839 0.118291 
-4.441401 1.982617 0.996435 -0.917945 0.377978 0.120454 
-4.474007 1.904649 0.995100 -0.923095 0.364561 0.122437 
-4.498843 1.839466 0.992699 -0.928300 0.351360 0.121677 
-4.530144 1.761217 0.992521 -0.934111 0.335845 0.121013 
-4.551712 1.691692 0.995599 -0.939108 0.322019 0.119915 
-4.581448 1.617074 0.989325 -0.944769 0.304202 0.121949 
-4.597733 1.537294 0.991406 -0.949152 0.290719 0.120801 
-4.627591 1.459935 0.991271 -0.954106 0.273167 0.122727 
-4.650569 1.386502 0.987558 -0.958427 0.259493 0.118662 
-4.662566 1.312209 0.988556 -0.962880 0.241689 0.120198 
-4.682142 1.240728 0.981094 -0.965941 0.229619 0.119300 
-4.701843 1.157398 0.978596 -0.970023 0.212312 0.118233 
-4.718505 1.087514 0.981582 -0.972627 0.200581 0.117321 
-4.739468 1.003762 0.977181 -0.976201 0.183271 0.115947 
-4.750699 0.927101 0.970977 -0.978991 0.168707 0.114523 
-4.764143 0.851656 0.976228 -0.981781 0.152450 0.113423 
-4.771286 0.778264 0.969331 -0.983661 0.138799 0.114660 
-4.780999 0.698230 0.965205 -0.986212 0.122829 0.110904 
-4.796448 0.621530 0.966758 -0.987930 0.107153 0.111863 
-4.798961 0.539766 0.960057 -0.989393 0.096725 0.108379 
-4.806335 0.459073 0.957864 -0.990378 0.086875 0.107725 
-4.813604 0.382188 0.955885 -0.990892 0.081711 0.107030 
-4.822410 0.302476 0.945876 -0.991545 0.074337 0.106360 
-4.817821 0.231312 0.946618 -0.992284 0.064788 0.105707 
-4.824425 0.153254 0.944549 -0.992931 0.059734 0.102562 
5.132421 0.097979 -0.016254 0.994276 0.049992 -0.094428 
5.127661 0.170683 -0.016856 0.994200 0.054675 -0.092613 
5.127567 0.253181 -0.010027 0.993590 0.063994 -0.093184 
5.119933 0.332161 -0.011181 0.993092 0.073437 -0.091514 
5.121394 0.411623 -0.007310 0.992713 0.080552 -0.089628 
5.115290 0.485064 -0.000808 0.992275 0.087721 -0.087721 
5.102830 0.560503 0.010093 0.991715 0.097452 -0.083694 
5.095884 0.645086 0.006456 0.990325 0.110036 -0.084554 
5.087516 0.717455 0.017978 0.988357 0.127492 -0.083045 
5.080341 0.795699 0.016949 0.986701 0.140620 -0.081536 
5.066073 0.876807 0.030589 0.984095 0.158648 -0.079920 
5.055601 0.951098 0.026036 0.982014 0.171883 -0.078128 
5.044877 1.024212 0.031817 0.979076 0.188518 -0.076623 
5.027969 1.103762 0.040351 0.976200 0.202607 -0.077359 
5.013930 1.183820 0.049271 0.972852 0.218799 -0.075405 
4.994814 1.253707 0.055078 0.969601 0.233353 -0.073625 
4.975900 1.339578 0.053610 0.965279 0.250444 -0.074252 
4.954879 1.410263 0.064180 0.961407 0.265435 -0.072391 
4.932731 1.486069 0.072025 0.956358 0.282939 -0.072975 
4.911726 1.563800 0.076863 0.952369 0.295919 -0.073657 
4.889986 1.631786 0.083745 0.948067 0.309970 -0.071332 
4.867132 1.712105 0.085176 0.942946 0.325650 -0.069315 
4.834449 1.784750 0.099046 0.937623 0.340595 -0.069697 
4.811361 1.856262 0.102308 0.933047 0.353367 -0.067497 
4.787284 1.928261 0.109036 0.927696 0.367628 -0.065032 
4.756629 2.001823 0.110563 0.921292 0.383760 -0.062846 
4.723019 2.072512 0.125255 0.914791 0.398962 -0.063135 
4.691437 2.145199 0.124072 0.909145 0.412020 -0.060790 
4.660719 2.222624 0.134869 0.902053 0.427288 -0.061041 
4.628467 2.292542 0.143875 0.894791 0.442629 -0.058563 
4.591718 2.361099 0.152401 0.888315 0.455792 -0.056119 
4.560158 2.425148 0.149722 0.881444 0.468912 -0.056379 
4.517593 2.501203 0.163355 0.873934 0.483072 -0.053675 
4.477737 2.564557 0.165593 0.866681 0.496234 -0.051144 
4.441138 2.632874 0.178864 0.857829 0.511371 -0.051276 
4.398021 2.699225 0.179729 0.850796 0.523246 -0.048577 
4.357832 2.763688 0.196605 0.842770 0.536308 -0.045969 
4.320463 2.836583 0.199680 0.833199 0.551279 -0.043265 
4.270412 2.894891 0.204987 0.825423 0.562852 -0.043296 
4.225915 2.961926 0.211588 0.816643 0.575712 -0.040622 
4.181446 3.023581 0.222365 0.807250 0.588999 -0.037774 
4.134581 3.089149 0.231380 0.797909 0.601587 -0.037862 
4.092324 3.152249 0.237189 0.788330 0.614082 -0.037941 
4.040497 3.213688 0.249152 0.778596 0.626538 -0.035199 
3.989847 3.268908 0.252268 0.768473 0.638749 -0.038071 
3.944758 3.334638 0.264800 0.759481 0.649575 -0.035226 
3.892294 3.397545 0.271626 0.749042 0.661583 -0.035266 
3.839014 3.451324 0.276197 0.738392 0.673447 -0.035296 
3.790765 3.506141 0.282452 0.728934 0.683816 -0.032428 
3.735888 3.562740 0.293250 0.717928 0.695361 -0.032441 
3.675565 3.623359 0.302625 0.705388 0.708204 -0.029567 
3.628951 3.671264 0.312191 0.695422 0.717991 -0.029622 
3.566729 3.732650 0.323127 0.682525 0.730373 -0.026738 
3.513213 3.784287 0.322783 0.672364 0.739740 -0.026670 
3.450972 3.833371 0.340166 0.660598 0.750361 -0.023843 
3.389716 3.886201 0.342261 0.647303 0.761944 -0.020971 
3.330333 3.939466 0.358888 0.635225 0.772043 -0.020941 
3.276774 3.989247 0.357824 0.624762 0.780605 -0.018089 
3.210794 4.033697 0.372891 0.611179 0.791345 -0.015245 
3.145327 4.078834 0.375608 0.599292 0.800434 -0.012399 
3.091965 4.127257 0.390684 0.588208 0.808614 -0.012398 
3.021405 4.169909 0.396996 0.574430 0.818460 -0.012339 
2.955227 4.217748 0.404790 0.561910 0.827143 -0.009570 
2.898660 4.256599 0.414962 0.551215 0.834309 -0.009527 
2.831961 4.301697 0.424726 0.537389 0.843308 -0.006768 
2.760647 4.342069 0.428296 0.523571 0.851981 -0.001346 
2.698061 4.386236 0.444250 0.509765 0.860313 -0.001338 
2.631904 4.425734 0.449094 0.495132 0.868817 -0.001335 
2.564685 4.457826 0.460491 0.482479 0.875906 0.001329 
2.487926 4.504295 0.471686 0.468736 0.883337 0.001320 
2.418633 4.537614 0.475833 0.454041 0.890972 0.003948 
2.352840 4.568623 0.485553 0.440356 0.897799 0.006572 
2.281862 4.599833 0.492740 0.427740 0.903878 0.006540 
2.215657 4.634484 0.499496 0.413000 0.910685 0.009120 
2.138480 4.672369 0.507864 0.398272 0.917193 0.011676 
2.067365 4.700116 0.519353 0.382655 0.923783 0.014172 
1.992042 4.727283 0.525901 0.371118 0.928436 0.016694 
1.925150 4.760808 0.541211 0.353435 0.935263 0.019139 
1.848849 4.786285 0.542710 0.338910 0.940571 0.021579 
1.779942 4.804789 0.552915 0.326732 0.944874 0.021446 
1.705400 4.830646 0.563196 0.310086 0.950343 0.026364 
1.625679 4.859545 0.575435 0.293526 0.955519 0.028728 
1.552531 4.881405 0.578922 0.280980 0.959291 0.028469 
1.477223 4.897007 0.583265 0.264659 0.963851 0.030774 
1.404150 4.916143 0.594183 0.250719 0.967410 0.035468 
1.329241 4.939924 0.602271 0.236949 0.970883 0.035239 
1.249554 4.955093 0.614741 0.220477 0.974677 0.037349 
1.176807 4.970149 0.618037 0.206512 0.977651 0.039393 
1.103161 4.987673 0.634997 0.190927 0.980726 0.041506 
1.016457 5.002781 0.634667 0.172417 0.984068 0.043397 
0.946038 5.018630 0.644265 0.159507 0.986152 0.045407 
0.861869 5.027324 0.655514 0.143841 0.988476 0.047180 
0.787650 5.038340 0.666053 0.129085 0.990416 0.049121 
0.708906 5.041052 0.671485 0.114005 0.992181 0.050794 
0.629040 5.054109 0.679584 0.097047 0.993898 0.052428 
0.551669 5.056540 0.689230 0.082832 0.995093 0.054117 
0.482473 5.067776 0.693423 0.068891 0.996184 0.053582 
0.399872 5.074594 0.706124 0.050669 0.997201 0.054981 
0.323377 5.076636 0.712920 0.035141 0.997787 0.056438 
0.245135 5.075571 0.721566 0.017879 0.998042 0.059946 
0.167210 5.078154 0.724766 0.001034 0.998136 0.061026 
0.084583 5.076400 0.739755 -0.013587 0.998131 0.059574 
0.008664 5.073445 0.745417 -0.028747 0.997611 0.062816 
-0.073530 5.065484 0.751915 -0.046442 0.996886 0.063723 
-0.149710 5.064128 0.760268 -0.062452 0.995952 0.064644 
-0.225385 5.062976 0.764813 -0.076532 0.994917 0.065440 
-0.303033 5.055157 0.774665 -0.091148 0.993622 0.066391 
-0.381154 5.043139 0.777256 -0.106154 0.991909 0.069628 
-0.453044 5.029084 0.788156 -0.121309 0.990110 0.070475 
-0.531763 5.026456 0.795730 -0.136804 0.988027 0.071325 
-0.613608 5.010713 0.805640 -0.152283 0.985710 0.072010 
-0.687186 4.994439 0.806219 -0.165732 0.983659 0.070346 
-0.768439 4.979667 0.819194 -0.182546 0.980428 0.073744 
-0.838589 4.969351 0.822900 -0.196043 0.977778 0.074277 
-0.920487 4.953090 0.827147 -0.210664 0.974473 0.077613 
-0.998612 4.931025 0.843209 -0.227986 0.970496 0.078487 
-1.068618 4.919145 0.841024 -0.242661 0.966872 0.079211 
-1.151017 4.895485 0.848186 -0.258180 0.962769 0.080125 
-1.224700 4.871386 0.863146 -0.273929 0.958110 0.083593 
-1.293027 4.851657 0.866983 -0.288584 0.953752 0.084117 
-1.373082 4.821268 0.872388 -0.304170 0.949061 0.082243 
-1.446500 4.798327 0.873897 -0.319873 0.943824 0.082930 
-1.522173 4.777308 0.885773 -0.335672 0.938023 0.086240 
-1.593632 4.744107 0.891854 -0.349269 0.932723 0.089659 
-1.665202 4.715358 0.892936 -0.362289 0.927945 0.087542 
-1.734774 4.684937 0.902094 -0.376163 0.922075 0.090985 
-1.812473 4.660987 0.906314 -0.389297 0.916555 0.091519 
-1.886811 4.623888 0.908118 -0.406726 0.908584 0.095132 
-1.957519 4.595331 0.920456 -0.422315 0.901400 0.095540 
-2.023806 4.557526 0.924940 -0.435656 0.894975 0.096039 
-2.096512 4.529578 0.928918 -0.449038 0.888284 0.096522 
-2.165409 4.491873 0.936034 -0.462450 0.881325 0.096988 
-2.232546 4.450816 0.933994 -0.476924 0.873182 0.100480 
-2.297009 4.408308 0.938486 -0.490527 0.865886 0.098105 
-2.367139 4.373006 0.947027 -0.503992 0.858072 0.098514 
-2.432805 4.333851 0.948983 -0.517443 0.849983 0.098902 
-2.500894 4.289359 0.960450 -0.530714 0.841377 0.102116 
-2.565875 4.251764 0.958941 -0.542060 0.834049 0.102630 
-2.636029 4.201873 0.963812 -0.555428 0.825166 0.102964 
-2.699744 4.157172 0.970821 -0.568735 0.816011 0.103274 
-2.760951 4.115228 0.979441 -0.581970 0.806590 0.103559 
-2.818568 4.065258 0.981486 -0.595119 0.796904 0.103817 
-2.887191 4.022715 0.983374 -0.607982 0.786715 0.106946 
-2.946109 3.972908 0.986499 -0.620919 0.776516 0.107156 
-3.003822 3.916195 0.986903 -0.633734 0.766068 0.107338 
