ply
format ascii 1.0
element vertex 877
property double x
property double y
property double z
end_header
4.337991365897177 2.775273190143786 -0.044297920575237
4.289975824213718 2.840405353908844 -0.042540282672898
4.253500284068412 2.912033580538739 -0.032085632000300
4.209364454164975 2.977533593328851 -0.022818199824213
4.158955566340336 3.033791515868174 -0.018213922554942
4.119727486330357 3.099478521489640 -0.013586097883806
4.071041515677911 3.168168227453191 -0.001964083687070
4.020889249698381 3.223064836205554 0.009032099574015
3.971755985842900 3.290168315388752 0.018556704347488
3.918334265909877 3.343949610977191 0.027380717772034
3.867090425721891 3.400856407872294 0.030653149808980
3.814516143857133 3.463838130917812 0.041538280115732
3.762988314795776 3.524167459750751 0.044745509149332
3.707989215089980 3.581192623781832 0.053378508244575
3.655267351673381 3.635351735882244 0.062537226034335
3.601341028962119 3.688589582923603 0.071942335565321
3.548549903676140 3.744325344095596 0.081418712102007
3.482388266440660 3.797869161190890 0.090858534008123
3.424601871514278 3.846106610018967 0.099034073672900
3.368229327670877 3.900758448936033 0.111014319342974
3.313426740710767 3.948957592031592 0.116083783914140
3.245651341822742 4.002924477224468 0.122410581670279
3.191056063625583 4.045106283909534 0.126876002952458
3.126988582084998 4.089321563118296 0.141421311808847
3.060115209176943 4.143888296749660 0.146819811448099
3.002937918381067 4.181282741783328 0.161936979816680
2.941116200647938 4.231572553070089 0.169612045154783
2.876359471418227 4.270824154057997 0.177296456999263
2.802297956353828 4.315124341539891 0.184273630397828
2.739455568233740 4.358175888546414 0.190356137981411
2.677317076117181 4.394945956116500 0.200001315265348
2.601898907104992 4.438928054593181 0.211867086288251
2.541441184226441 4.475234807234576 0.219628920991127
2.464045458983370 4.507376846487032 0.226284652592074
2.397069368142310 4.546592239666332 0.237758479336296
2.329047439634426 4.583446923591604 0.240797780020800
2.263170420294990 4.621305834175290 0.249593353564331
2.187607765249163 4.651177627363998 0.266209347130074
2.114760048168181 4.677719678196270 0.270782844637338
2.040168546654062 4.708030415908593 0.277885114992702
1.968301289913298 4.744918567132173 0.291904385058343
1.896601703830367 4.769603919996972 0.294693842358726
1.821559571292529 4.797748973983274 0.304817877791339
1.749504281539406 4.817713835463246 0.310376576419020
1.680866171066671 4.850937785750673 0.322237633520218
1.600301305681766 4.870835965377214 0.329450225536151
1.532668171051872 4.888681817845421 0.341498281925470
1.457416043885558 4.913997870621771 0.348979020998326
1.374689717061965 4.930461806617976 0.361170677502018
1.304867470451755 4.950939180357618 0.370858913590058
1.222793558873803 4.965121250753890 0.379036081887715
1.146919283317754 4.989803035756158 0.385774055947418
1.070984575167996 4.997918778059506 0.393298054667941
0.997959487115422 5.015898908757393 0.398595604815201
0.917454987908035 5.029493587544962 0.414009386142369
0.844611194281046 5.039430087466556 0.418650798401039
0.763228265598349 5.045370662836000 0.427607047817708
0.692643353944488 5.060693959383760 0.435233822518461
0.612846833158658 5.062524159609733 0.443331591850652
0.534092078743252 5.073817154866314 0.453681120124955
0.459506240730050 5.075382735861725 0.461155976132859
0.375312269405764 5.077766719129870 0.467875256242532
0.302369734743233 5.083374419360586 0.476159538499380
0.217603399915240 5.083944400727114 0.481584867344640
0.145754257930007 5.087119594500178 0.489660607654830
0.060633052863650 5.081846876603290 0.500749004791756
-0.016510199523778 5.084246462894305 0.508589440523269
-0.088102073298617 5.076805511481173 0.517010996198331
-0.172744735320024 5.074637808766732 0.522290012640640
-0.252624851948700 5.072559177041740 0.531697283117044
-0.326479700316402 5.060902896029042 0.534633096319183
-0.402014912281031 5.053382628727781 0.540191677239295
-0.484035316353809 5.043197153809594 0.550423314282156
-0.557702529894371 5.033609402003448 0.557554978166003
-0.633089653636140 5.023610205854695 0.564176217872100
-0.712569087650414 5.013279218566704 0.569627989638580
-0.790604951510746 4.997157176717321 0.576873480714149
-0.866100884788011 4.976645997722594 0.589068662760900
-0.947731819837224 4.960416138935858 0.593127088002131
-1.020157686152691 4.940850367289962 0.596714466517580
-1.091320422682713 4.921926389323215 0.609902856697351
-1.169849047580315 4.908146058923689 0.609191262929729
-1.251787379353634 4.881942917557816 0.615031359741723
-1.322646994685541 4.862774324605937 0.624671477338125
-1.395836088365288 4.835073580196799 0.634156912346888
-1.465725834952887 4.809714446220529 0.636460155124705
-1.542964617707713 4.789600461419731 0.649213316130409
-1.622362765962621 4.756123070936046 0.645793595163829
-1.692836264346778 4.733299121794095 0.656640291669256
-1.759566193019855 4.705698777247320 0.661780368684913
-1.832978472093866 4.666214514979709 0.666233439894863
-1.910741806119122 4.641293563623642 0.674810523679902
-1.981625372100600 4.605549343738374 0.681367576916427
-2.044067736995266 4.568318460407007 0.686113134709168
-2.113614871100376 4.537436308071054 0.693447678503303
-2.187311786749639 4.504561498761268 0.693489459926033
-2.260492723030312 4.462824448054450 0.695167542718462
-2.327734535057969 4.426644832986605 0.705071916322311
-2.390596640236218 4.383827151698075 0.706042594776874
-2.458707719298246 4.347569810574936 0.715646272828125
-2.522624036682322 4.298136486148834 0.721400002577613
-2.593587451608163 4.260003513836227 0.719919167773420
-2.657973930600141 4.220355230990583 0.728048987951783
-2.717058575686961 4.173368344804473 0.731118380420561
-2.783821216508352 4.128060186794038 0.739147113643277
-2.852148722601779 4.076638544225789 0.744365919179597
-2.914541599521485 4.035014693996008 0.739867141097892
-2.974457825908803 3.980820729630329 0.746085089555419
-3.034991878501224 3.928068373154210 0.749080976578299
-3.092911555809548 3.882212570581235 0.754820932434779
-3.149788673001975 3.826454998575910 0.761971734529150
-3.214440650437239 3.774147625121590 0.759212089698282
-3.266012354892752 3.724981984460407 0.768620444393849
-3.324763151200169 3.667214790028029 0.763414984572615
-3.382676245691937 3.611618380004402 0.768870089668274
-3.431425630576232 3.555661986763936 0.770297759030112
-3.488618886088787 3.498517871935638 0.778344660598607
-3.545641360649657 3.443916360425724 0.782260933541509
-3.589826973152805 3.388592520409764 0.775847961087338
-3.649637030082983 3.330656513380582 0.781384697755925
-3.694197752909401 3.269096389575404 0.782444906148752
-3.749138130573119 3.208134067590611 0.789474021462249
-3.798745974454645 3.141303163263121 0.786730674345074
-3.845574586572387 3.083252626640013 0.788680290908362
-3.890808234037749 3.018423257818535 0.788946911601698
-3.937614022584851 2.956569586666355 0.793055339422578
-3.982631326362516 2.889532499147671 0.794298312242458
-4.018916449079224 2.826442590598751 0.797026587027638
-4.062417343442526 2.757903953222555 0.796781617147804
-4.107715100930444 2.689536862370919 0.794141812039819
-4.149884236675701 2.619153332850382 0.799914176511729
-4.187272934858448 2.553582294019861 0.795988958689707
-4.219920669382180 2.484618621603758 0.797963954705124
-4.258366048851546 2.416311872031438 0.796225646772947
-4.297597716744478 2.350029092198731 0.797740843367680
-4.334663516509640 2.276683891405733 0.798411280733755
-4.363678256682711 2.204583035973497 0.794062529202685
-4.402538611139978 2.136494095090360 0.800704145480787
-4.426830176228562 2.063609815604690 0.799323591886487
-4.464169899716480 1.990214047372641 0.802273753522726
-4.493477859239010 1.916913418352663 0.796469403762248
-4.519617220962929 1.844448406894323 0.796072900900529
-4.546627156248735 1.773514868748628 0.796149246563908
-4.573696685089801 1.702119644639144 0.797845527665245
-4.601734202760907 1.621933457200381 0.797394976477698
-4.620495288266008 1.552383934702291 0.786471682991566
-4.642763777845346 1.470737067169288 0.784544012911121
-4.666267039030931 1.397092981925737 0.786900215227213
-4.681955264719410 1.326419755112766 0.784247521170278
-4.704344260194743 1.248089177920367 0.784787692488107
-4.721622647877377 1.167178807079410 0.780684272591478
-4.742374066127971 1.089920092460210 0.778857996991816
-4.759041013582828 1.016486481455838 0.778852549867170
-4.771281130491807 0.940537912474992 0.773695298645019
-4.786858451773884 0.857135792568941 0.768147983780139
-4.794654870310505 0.787982080934102 0.766076942371190
-4.802947463513843 0.705579676293965 0.763503904315298
-4.819202813002618 0.625067648469226 0.762204017361978
-4.823271993811516 0.553130902895728 0.757171594826496
-4.826541569749100 0.473579409432565 0.755103744255125
-4.832820513842277 0.397324459028269 0.752533921591713
-4.839061843120674 0.312640399744181 0.745815734560743
-4.845705979453081 0.236362715823728 0.745847047808113
-4.844192600571660 0.156338684230578 0.744828710892985
5.112827903209928 0.098987250001523 -0.223314242186712
5.105897175181227 0.182698370402286 -0.216608301013519
5.104135258416042 0.263631479444995 -0.211380742236163
5.105883872804115 0.333646331052385 -0.208120786539984
5.098256736966061 0.414577686630534 -0.197555360916891
5.092203253386158 0.495126998130115 -0.197028700823556
5.091760304462830 0.570499082452502 -0.192392270476751
5.075896066003179 0.654632531278610 -0.182612296193667
5.068395406592100 0.730117284356235 -0.187038979514765
5.064462834845948 0.804940519095092 -0.176880394122200
5.052944712776129 0.885810889324567 -0.176437803239030
5.039038160830536 0.963658753328142 -0.165433779448762
5.020937747097374 1.037590847221694 -0.166617573206311
5.003806450405936 1.118841486903607 -0.156396046737776
4.995565131182914 1.196037885107169 -0.155774193013909
4.973816685293206 1.264169208401764 -0.149015051617109
4.953451853990883 1.348090657973716 -0.135876258083060
4.930568304010900 1.423635699617673 -0.135288103758012
4.909061479309954 1.492604008295040 -0.133587330017369
4.894791606466121 1.568490342873626 -0.120489679364648
4.865205731402207 1.650513543534419 -0.115993787172248
4.847249348344262 1.718353201554869 -0.109484599584584
4.821726375039091 1.798494290871169 -0.103513861791181
4.794316731767797 1.866903438753432 -0.097799937074899
4.768099722180761 1.936468144780386 -0.092675049326669
4.736637428046083 2.014000837928102 -0.083349807358653
4.703139994729074 2.082915811245007 -0.082945256151102
4.670014532395919 2.160179221276996 -0.076133872260904
4.640277509225626 2.230652997312309 -0.068646648781351
4.608002280870375 2.302325105760437 -0.059973564053340
4.574341951851408 2.366119684998657 -0.051798113638696
4.534550072322421 2.438210746659920 -0.039078194787591
4.496517172559233 2.507229526251934 -0.038922170254301
4.460268075012014 2.573334111815989 -0.026359186150741
4.422587112160561 2.647561106989678 -0.026259940807486
4.378172354461500 2.707873434652883 -0.012673389502146
4.335865374596846 2.772769446703656 -0.011615436500214
4.299886679834078 2.841800863645632 0.000534479472992
4.255736052264259 2.903840431003231 0.005776373970858
4.215087411760394 2.976421272625353 0.010744649255422
4.165490355211330 3.037080135542232 0.027242980909808
4.120252333131995 3.095732056866932 0.029620010758238
4.068378851274812 3.162834095756931 0.042070300463333
4.025264980020139 3.223189649518868 0.048553744412182
3.969867486363879 3.285442080625182 0.051784006010668
3.922064682695608 3.339715366869410 0.065757918011849
3.876500127379859 3.397617297422553 0.072165061229666
3.822975128199108 3.462378316635967 0.080535936293146
3.765841329043561 3.515183607824355 0.089818682976076
3.716837718693267 3.577045753632830 0.094723518557000
3.661037341416780 3.634092351363182 0.101545671203285
3.603612231125493 3.689129414160088 0.116747192108926
3.550174389316109 3.735008083746669 0.124775126306326
3.489779207287544 3.789905939234491 0.124823328860587
3.427621131749698 3.848476688659714 0.133602786805268
3.371138133251686 3.893916338748726 0.141965180978815
3.309938513603641 3.945089579533464 0.154542659142680
3.252294259223375 3.995308659124241 0.167173871839812
3.188963305807850 4.042849949147758 0.172609112239506
3.133857520739366 4.088382738138971 0.177384660254716
3.066587377646967 4.140772508139924 0.185342697945462
3.006564010372418 4.182220938456261 0.198858305724467
2.940328012576144 4.229881729108324 0.208108745815409
2.875113894443613 4.271743439736537 0.216807602290885
2.805242802972844 4.318009299303792 0.222177233576110
2.741438004677461 4.357551984783747 0.231330394717374
2.673602026724620 4.397123739753223 0.240979500625834
2.606921126521472 4.438581214569282 0.245631448175171
2.537078760966754 4.469391552874013 0.259410310190605
2.475464859303972 4.509322596670319 0.265896533567641
2.398932165520890 4.547746105505637 0.272400081172466
2.335792344991320 4.580070793393379 0.279949183270587
2.266936148480860 4.616678549420006 0.289367536965298
2.195480729678361 4.646807140483317 0.305013545509425
2.119186092733175 4.678959044225840 0.314422916536262
2.053552276502719 4.709123496944219 0.323061073161283
1.973733784291658 4.735439260173868 0.329470812193094
1.902288063144232 4.769523151866545 0.337862254086695
1.834141578703574 4.794778034359435 0.350488555636683
1.758585518106252 4.824326595946412 0.353241058036534
1.680649176802172 4.841634919662011 0.365308078218409
1.605453631664977 4.866319050413928 0.368487111642881
1.537935739369962 4.892523097681426 0.379481609576120
1.463453476820933 4.914091452578588 0.392197755152649
1.378350572750765 4.933624742378432 0.402217084852416
1.303006329317736 4.953600321059757 0.410321216450315
1.230266081822487 4.966513640619409 0.419624235972807
1.158600165813047 4.979932631618758 0.424454846723790
1.079409001641828 5.000032913542459 0.430876750404161
0.999748149966501 5.010901117266085 0.436706080304937
0.921665090099311 5.027796056489549 0.445365942558226
0.842536018759445 5.034765313818535 0.455594542699893
0.765798431060607 5.042093989591389 0.464732161879957
0.691830864663492 5.054870336488168 0.474349100034568
0.615374218820257 5.067362931653225 0.481765160968809
0.534249317612447 5.067171757631194 0.490714489456925
0.456458483167811 5.075200658726414 0.499031833416383
0.375687911357032 5.076976006281536 0.502205979767399
0.304119254837401 5.082153961813971 0.510590269313670
0.221777768756949 5.088639451896514 0.518911455445676
0.150719445881322 5.084477780559970 0.530309462770818
0.065709402074637 5.084000770071492 0.533997753364033
-0.010483328035912 5.077455017996753 0.547181226738204
-0.093574469024921 5.079788972189238 0.552828184134975
-0.167206918926190 5.076579531791524 0.565840532786728
-0.242626473694301 5.069783667183891 0.566608155802290
-0.318096010702799 5.061712945348571 0.576746950430673
-0.404096624907730 5.051862895192444 0.586702669492942
-0.475824508975661 5.046219072000245 0.588296529827683
-0.558666548245311 5.029108348973783 0.599015646498592
-0.633973119065427 5.025535173899669 0.605908795086321
-0.705928162662141 5.005343963872883 0.614759327454293
-0.789159318561300 4.996742090691360 0.617189871994118
-0.866206121261035 4.979361607658009 0.628652826183074
-0.934708385193845 4.964480924942920 0.634103014662898
-1.018338397489497 4.942731829824788 0.636154476448044
-1.093654531726131 4.923696477863166 0.648349680435703
-1.165104084060793 4.902352581266253 0.647763638756521
-1.243795950975093 4.881753590557916 0.664291076506704
-1.313097262379735 4.862352756110041 0.668409098871269
-1.392116512456191 4.839585424288657 0.673849976203921
-1.468714288455740 4.814721233190324 0.674040883160604
-1.543231331026996 4.784976839692668 0.682956585764002
-1.614098082639594 4.756670177467707 0.693478491952698
-1.689051942278549 4.726443134305972 0.693122983706795
-1.761613105533248 4.695995039386108 0.706842399129583
-1.836165073464266 4.672836173089522 0.704787072989300
-1.902852286820815 4.641226950747633 0.713339563325629
-1.974368047337746 4.608998647315952 0.716324814053058
-2.048691527826608 4.570441738253360 0.725450005450562
-2.109583992401537 4.533479595587020 0.727148868106257
-2.180151440585758 4.499716060190986 0.729689387815285
-2.254650162060197 4.459654482479196 0.738468372564234
-2.323775656272705 4.420157539669199 0.749003032650518
-2.385403762494448 4.380968600929849 0.745624198677614
-2.457355637440786 4.346980242875555 0.757597089346949
-2.526017642655674 4.297646449616078 0.761940083002302
-2.590379063681887 4.257749194696999 0.759946871554198
-2.656101723814389 4.210419692345721 0.772209867067950
-2.715066851378440 4.169090351767278 0.766251387759046
-2.784670768579657 4.120715053631978 0.773414830715068
-2.848038371237833 4.072390377733391 0.781585129438363
-2.905863011727382 4.027076681088595 0.780623617543966
-2.969852138522069 3.983741968310095 0.784272028657985
-3.030835089771350 3.928116174097031 0.789830243239242
-3.086046215616556 3.879581187900468 0.791027243928406
-3.144707824283635 3.826913977198257 0.796623896469914
-3.208983520624618 3.774323287869215 0.800724831039272
-3.262026882981576 3.720119006059736 0.806271098112406
-3.318877002787023 3.669563513853683 0.810512955394407
-3.373335972689798 3.609183276742709 0.810550863483941
-3.426219218227175 3.553224036625585 0.807679430243883
-3.482835644258821 3.503623361835840 0.811302248336552
-3.536513269174590 3.444608878114708 0.814493185914679
-3.586299580577703 3.388255554251753 0.817477319761600
-3.645573253862953 3.321828824624729 0.817976770375034
-3.691907789579405 3.268934613166196 0.819896860248260
-3.743749760187073 3.198932667893148 0.829438471695064
-3.787103973469571 3.139485649941118 0.822216879791979
-3.836943536822218 3.082356066591002 0.831137156866499
-3.885736601655015 3.013083997510942 0.832401197974233
-3.933932824039893 2.951274904102758 0.831931370690154
-3.971815976572979 2.889094010941701 0.833602105856280
-4.015597526936954 2.824783074752414 0.829909050357172
-4.059314904632224 2.757718598923200 0.832643800969173
-4.103992614773323 2.685609056537325 0.839686444590009
-4.143829249977066 2.619298958298192 0.841348499645461
-4.184753935754189 2.554033710767070 0.838351992534670
-4.222023467049784 2.485768792670425 0.834210568126459
-4.253394257222409 2.414038235762602 0.839677620880396
-4.293469261838132 2.349951500558502 0.837889495158063
-4.325859313070750 2.278033526477695 0.841615834748619
-4.361701901992698 2.206456535442334 0.833401863283577
-4.400269225327961 2.134103030973489 0.834106692888112
-4.425168609908118 2.066285069121915 0.838044676462222
-4.458807139280657 1.994743906284926 0.839880305161414
-4.485857344264224 1.914902170081570 0.838835433781127
-4.521036864567246 1.844499794724849 0.834556528998812
-4.547109837720591 1.767589383865146 0.835160219879022
-4.570335743694115 1.693120040356591 0.829819799376816
-4.592259533571913 1.618665373121650 0.827183469204767
-4.613015871408263 1.546062393217144 0.835107549949818
-4.640680583175115 1.468322403404195 0.833325568097554
-4.661038773407783 1.397398556126604 0.823912448609143
-4.679175133615004 1.320984707028571 0.820941710453715
-4.701979651411796 1.242800498694521 0.819975366192208
-4.718629075590363 1.167780554316315 0.823878834686116
-4.739591187985202 1.094316410751242 0.816112309899013
-4.750412771686652 1.015663483779759 0.816205881362619
-4.763978646538968 0.941448164171759 0.810668502308888
-4.780748303802192 0.862854463281033 0.814927131978177
-4.790525603584674 0.785661778633996 0.810348414159357
-4.803338133426802 0.700513415328374 0.807576100650358
-4.807326272455122 0.623386433182143 0.800184532868078
-4.820216087298969 0.550474297828753 0.800999632677856
-4.823198638049385 0.465763510430165 0.796299579871450
-4.829961661615300 0.392237848477348 0.797425539975791
-4.837123411102339 0.316761391596522 0.788881778626182
-4.833842718019069 0.233014706907885 0.787758708195170
-4.842694953496173 0.159845746973759 0.785720887804228
5.111586061960343 0.098415801861934 -0.181988792527853
5.114068583732843 0.176756808111994 -0.173910553567610
5.111957710924993 0.254936120441118 -0.171092657795048
5.103899801439253 0.339897135286578 -0.166775753207735
5.104736968501883 0.416834515957681 -0.166567431140525
5.100222348067278 0.491131167798443 -0.159471025699102
5.091281645305472 0.574011765091116 -0.149309747161840
5.086940191974254 0.653323746829483 -0.150909313533783
5.077516899889465 0.723931082128402 -0.148554824255194
5.061440211801754 0.807459488172361 -0.133875723091893
5.057159397290134 0.881130913044577 -0.132020146818713
5.037729809305698 0.958131309391254 -0.125903770643931
5.021947312506285 1.032013932635219 -0.123273416270061
5.007999561685812 1.114026399085602 -0.115791703475316
4.996941675622867 1.189395632882382 -0.109872628953446
4.980722543078016 1.265773083140883 -0.111573362835631
4.956150227982692 1.343881567586926 -0.097187235030184
4.940213575246186 1.415099006181368 -0.099696062019996
4.922849772966626 1.496811643065777 -0.089330582690709
4.897559566891995 1.569410147887797 -0.082969706117749
4.869612975311798 1.639317287288685 -0.079300287684946
4.847364525080475 1.723266433243092 -0.074552468658156
4.821500911656591 1.793026453844133 -0.062579778211181
4.795051464903099 1.864080721830208 -0.054121799531875
4.771645602851949 1.941011655485215 -0.049099173832949
4.737927203749796 2.008537055396204 -0.050403474642667
4.703353452184593 2.080510507812422 -0.037932017564482
4.677838543190792 2.155057752034613 -0.033008284613198
4.645611744098371 2.221327234568459 -0.023284793718098
4.610329666307311 2.301645171683695 -0.013348502593239
4.573450012954901 2.366939393908243 -0.007572708388816
4.538700069508026 2.433587492699899 -0.004467256224870
4.507237110256338 2.508406271016166 0.001518910611238
4.463713302448514 2.569123155209595 0.012498352926422
4.426412451959014 2.638558463706021 0.018668537511936
4.380544329182832 2.707368381474192 0.021091727619838
4.345719851650210 2.774602474556305 0.028174249421179
4.299518418846763 2.838892555064490 0.035616541399965
4.258883096413477 2.902188582441988 0.051907922164947
4.211605001889744 2.971561424799504 0.057618597757275
4.167960820254554 3.030159749677810 0.059054877620399
4.118934620457882 3.099065105754562 0.069780757988568
4.071640285124034 3.159001263959973 0.079187810711160
4.031363025331007 3.225914272281278 0.082066374604630
3.982689828142058 3.285395623558823 0.097290567380564
3.928156733877983 3.336908047833278 0.104646444366292
3.872517831990369 3.403491380179098 0.110999578754226
3.820703205614196 3.456035576598856 0.116961222483510
3.772443508681065 3.515147255511206 0.130377521958998
3.718312969924288 3.568689498010113 0.136585859354906
3.662295567569144 3.627990769717639 0.148547934123408
3.604184172574135 3.683375109609225 0.150837354639944
3.555988588472502 3.734769166048882 0.162692152540482
3.496737975461360 3.794048481060014 0.165712793561142
3.433171859631676 3.846197452623676 0.181649938193971
3.374096746676731 3.889507480395127 0.182582308969607
3.317003495074864 3.947306224366716 0.190508554029370
3.258133298616797 3.996103259814789 0.198570552208088
3.193270561339101 4.039192685942207 0.211343068129744
3.131239636302218 4.093608450044215 0.220144729080212
3.071605003704859 4.133957522167691 0.229334036880018
3.011744460945659 4.176806058294242 0.240275527445007
2.943923866062010 4.221487837946500 0.249641572451143
2.877250942165094 4.272385418495190 0.258525097112937
2.812626365566555 4.306955316901083 0.268188523494003
2.746191820563310 4.353679899312475 0.268724529906018
2.683642138420467 4.393981906576869 0.283591909112594
2.612933192674090 4.432465447017129 0.290006784410196
2.549242314288693 4.473967295565950 0.295607075455823
2.477639448136143 4.507672360413846 0.306849803338944
2.403008926504871 4.542559328304819 0.319210597938777
2.332804223070697 4.578660893379908 0.323323903167152
2.269499490888409 4.615084496312249 0.332092908082263
2.197205807516076 4.646983695410418 0.341620264017217
2.123966422371092 4.672701974123466 0.346313843130467
2.053953141807946 4.707652537586066 0.363398691994829
1.981073169504000 4.732084600075327 0.371783571424224
1.910013445617496 4.765752180038517 0.376823436821320
1.832720425690884 4.793123750316604 0.386143973939726
1.760664363125294 4.821472523749809 0.393357559765214
1.687656715874938 4.839351171923282 0.404360464818040
1.613939184891225 4.869698411861546 0.410264795126517
1.536487021385558 4.884673117782826 0.416245010632379
1.464689339560854 4.907189652657177 0.433805959365757
1.382063661052901 4.925564249466695 0.440036359626615
1.312348755962488 4.948951545159726 0.451069617759860
1.234243411867536 4.966129783067901 0.459506978613556
1.162687564475372 4.983051761700406 0.465516248242765
1.083824775627272 4.996357689882554 0.469897499257559
1.004614193900646 5.009707951212233 0.481988142307818
0.925706631962548 5.022230615474909 0.491645443512065
0.847818319216526 5.032898855989864 0.492379457889445
0.769700267021405 5.044665625873290 0.501703855099365
0.694587922453815 5.054028987582813 0.518400419699473
0.622159337256703 5.062960846508721 0.525654342400583
0.539200147439068 5.072481324986337 0.535125741184107
0.466445316716429 5.074705885546523 0.534317437084186
0.387531228891007 5.076377973688157 0.548730279846726
0.304594717747938 5.076878815446232 0.553976392425120
0.228985147109847 5.086216999213434 0.566028415543679
0.153468754208623 5.080806705677801 0.568556960434404
0.071915874875759 5.085692868365244 0.579880310735114
-0.007722096788823 5.082923590516482 0.589089655767833
-0.088848777005528 5.080217603791862 0.593143020003680
-0.157739585390638 5.070215318414187 0.604507489372650
-0.244610816630363 5.068104021359458 0.608615670028564
-0.322827408169060 5.061435180701820 0.618890214164805
-0.399036327386940 5.056187320119482 0.619304873203691
-0.468717011659643 5.042359377684383 0.634324382014284
-0.555162704960238 5.034575806307520 0.641979095516524
-0.627784055755206 5.017403147383445 0.647365829332431
-0.707473671584890 5.006455373834579 0.647796833082193
-0.783120593830242 4.993314407465025 0.656578742395016
-0.859082515053263 4.979838054954398 0.669556492839481
-0.930935037866814 4.960292015130324 0.674412692861898
-1.007537527013369 4.940164778547566 0.675756053077412
-1.090147209615132 4.926690303938046 0.683396560327852
-1.161512292575840 4.906767383713962 0.692287697320383
-1.235646148585020 4.885428972439590 0.700205917044594
-1.309713618165978 4.854600918096738 0.701555026304447
-1.385506023086613 4.831490106882733 0.713853439320678
-1.463551093201434 4.809907326576094 0.718200081800837
-1.532997151802100 4.779189570559968 0.728318761704018
-1.610339813566476 4.755304817703486 0.727323531703072
-1.683790365986737 4.724381927603258 0.740200282994474
-1.760387166778491 4.693569649718764 0.737438952350744
-1.822700274665360 4.671065020557557 0.752138773322201
-1.901793105085431 4.632496609845823 0.750932647749141
-1.970344598725521 4.601657351890342 0.762382032958854
-2.043908439254499 4.568303332872477 0.764747799993700
-2.113424977319301 4.529976132709919 0.767383929064107
-2.177466181374253 4.495277992642146 0.770306209869030
-2.245009264668719 4.459112628147094 0.782172549291490
-2.320592168009060 4.419753882389535 0.780541829646231
-2.388296918603083 4.377939692367028 0.784935364268946
-2.447487682042840 4.339827352224597 0.796944876632987
-2.518110626002099 4.299305505583496 0.801798459229371
-2.579859485473730 4.259424088115936 0.802720169969977
-2.651687596305683 4.209782643547876 0.802726389217964
-2.714918457307171 4.171541990115023 0.816661771408314
-2.778088152394601 4.121355305847590 0.815136323130639
-2.843350596877754 4.076995767677007 0.818311920055845
-2.901053998945054 4.023681879498264 0.818882657325427
-2.964095827771482 3.982956449621482 0.823508820323737
-3.022344217879391 3.931738935362104 0.832197279619919
-3.080844266822448 3.883074429086400 0.831692123901331
-3.147917469825961 3.828547417048867 0.833385216748542
-3.199792257246553 3.772177427135296 0.843213651084024
-3.259088949494286 3.720658411653603 0.844740947703227
-3.313695255555771 3.664434245323119 0.841360836038604
-3.375766281651321 3.609276381019602 0.850419533129700
-3.425398619677753 3.551469389392593 0.847693176368734
-3.481072961551550 3.493321499858690 0.854932161690279
-3.535758492492884 3.445574773423207 0.854328170832216
-3.585513686420654 3.380471560775680 0.855353235568829
-3.637362379463307 3.325155529699948 0.864890033307704
-3.683378886177426 3.264932074089483 0.861534347767689
-3.735622600620873 3.202448267036389 0.869370486433984
-3.781207444682782 3.140089979617832 0.867968194226357
-3.832660450001371 3.079590258174940 0.864054379653170
-3.875462677248832 3.018488054408247 0.874905273834035
-3.926590128677977 2.952227149813947 0.874301587163791
-3.974430755711849 2.882403065531468 0.871946657367643
-4.014791014649036 2.823868588284910 0.869986142142949
-4.052240357986229 2.751845440785212 0.870744805846004
-4.093342086398754 2.684467431085980 0.873501888317337
-4.135526579265809 2.618472974861661 0.876678456673377
-4.177868504323533 2.555910212623524 0.876234434302574
-4.219662512272603 2.480702605830668 0.873334965520377
-4.252728591781617 2.415858580637684 0.876959659718576
-4.291541273898963 2.344673212730293 0.881698273877952
-4.323766959648073 2.269927304713341 0.877627031433598
-4.358738125399075 2.202176791013223 0.882400705317641
-4.388710927693207 2.136087577385635 0.877174776967460
-4.420610220816874 2.062678697742516 0.879548130854781
-4.458122810769599 1.987971266872524 0.875740022083276
-4.479617898462214 1.920159261357319 0.873880910557828
-4.509270805487051 1.841666837856029 0.870746435080333
-4.540653578877452 1.768310178939979 0.876040700470746
-4.567230705015113 1.694883852414268 0.872490828818130
-4.590221817151683 1.618783706861930 0.868854585813107
-4.616131700155401 1.545745849279734 0.872022754990638
-4.634854449192117 1.472136769791176 0.865725112577271
-4.656203096559374 1.399357802751545 0.863373469366727
-4.676649534074842 1.314831917650215 0.867329960583382
-4.695434727396835 1.246881635745950 0.865944881958741
-4.719346589350935 1.165644955505582 0.863229187733313
-4.732660571812483 1.092778447327202 0.857801398537711
-4.748740462845650 1.010927447703215 0.860713496529818
-4.762260501034544 0.933451987812276 0.854922011866814
-4.775061914178943 0.858087477680784 0.856405550800257
-4.788617802313803 0.779917801517004 0.849259858787096
-4.794869006113594 0.703888461316966 0.846007938160774
-4.810201507930493 0.624852544691853 0.842762640131810
-4.814512281095648 0.541759318278824 0.840888155557626
-4.822600874687866 0.464702413825733 0.832899683528320
-4.829136623041330 0.394707821449624 0.829943324516580
-4.831104285427374 0.308824691765498 0.826356027034404
-4.840155649772422 0.229196502365845 0.823514627165637
-4.838637026599192 0.158974384847996 0.827925124680599
5.120752960834852 0.095484341087677 -0.144002440000653
5.119672838135402 0.175584070010890 -0.130865263916746
5.116122288731130 0.254427112157411 -0.131592398644123
5.111652266211124 0.334537259649554 -0.124911377364005
5.102263961294110 0.408296828962300 -0.125231775371203
5.100038979216355 0.489806742248420 -0.116071150041670
5.098838565577199 0.572885826445821 -0.113937940815992
5.083563697226262 0.644536564977873 -0.110619920287217
5.077218375120652 0.723421918216860 -0.104986322787734
5.070455149806245 0.804060628460782 -0.094080375690403
5.060868233998508 0.883627542819151 -0.096257229541171
5.043616261465622 0.958588197853104 -0.090832508999537
5.030468859489068 1.034460160786554 -0.085678532620253
5.019993313194220 1.116718035963051 -0.081823813917600
5.000707892857318 1.184402395310927 -0.070277164123538
4.984201097836451 1.266269144768333 -0.065320369399249
4.966578217965049 1.338812167859200 -0.059299804833422
4.946117939602009 1.414792647791787 -0.054563439893031
4.923533249290127 1.487144937503438 -0.051657894060567
4.898167528467869 1.562780307629692 -0.045965192011977
4.872928016577808 1.637089461824438 -0.034497810604612
4.847559519430421 1.720860689924109 -0.030822988580164
4.826745567308182 1.788592641070716 -0.020269811866015
4.800986395235475 1.864601814801008 -0.020772333843304
4.776551066489438 1.933834840686489 -0.009057190844149
4.740779795768298 2.011249208841146 -0.000555232497823
4.716805117665344 2.081374698277028 0.002019837223200
4.683445483279533 2.155023947807746 0.008038372075949
4.645337550425709 2.228475280320837 0.014633664449317
4.610544024255673 2.294047597871880 0.022308842469329
4.583543788886807 2.365045420716329 0.023677135965198
4.539983265857966 2.436234493034230 0.040651220376414
4.505261681521795 2.502671456638057 0.042482815592921
4.466999707500689 2.571828312671307 0.050125499252163
4.428130711503000 2.641818282974626 0.059172848145536
4.385643392866666 2.709702679924660 0.068546984560300
4.346537500966273 2.775829565584496 0.070037116216242
4.306243169361260 2.838195750343340 0.082755719635266
4.260506121655844 2.908862981729416 0.083830140928908
4.218617515077460 2.970106332751525 0.091498739396203
4.170469850252500 3.031208925888185 0.102240155858085
4.123891721088870 3.092609571377282 0.109854045838764
4.083428361977149 3.155226567362841 0.121858314589779
4.034554335660868 3.221469618018886 0.122332401165035
3.986256136176241 3.276126506123462 0.133690912905305
3.932809084606098 3.338988916342830 0.142542403739937
3.883808859770741 3.400388937756393 0.148153486955298
3.830693596378425 3.461749290233237 0.160361276809837
3.773558823448156 3.517374227136469 0.170640599943111
3.723299749440889 3.571134649753439 0.173567401727277
3.668519444980597 3.627820388650707 0.182371610752905
3.615300477119126 3.686518945164558 0.192110882378468
3.551292297987553 3.736446184390811 0.201291449788127
3.500182316575711 3.786512794079997 0.208143730379254
3.439123848953161 3.839551620632103 0.214909432264959
3.384327186137899 3.889527630410805 0.227251970550899
3.326634472383896 3.937711646026425 0.235351198073834
3.259683289785944 3.989456187051773 0.246242377221237
3.197670961318657 4.044573356020782 0.254730927658691
3.142200009015171 4.091047627104599 0.260362916791393
3.072977288286115 4.135478641747313 0.267965981421552
3.013293186188756 4.180821685492847 0.277874071068546
2.949515636288281 4.224378253389814 0.284211756014011
2.887447516503760 4.270021278467436 0.296975257555306
2.816919015615944 4.309960427308133 0.301501751048781
2.748926301229449 4.355177095616866 0.309317053727219
2.681880895895723 4.387363782385044 0.317232325438244
2.618281878140405 4.431371034992532 0.329291557471149
2.545782486179757 4.467392441920560 0.338152205001961
2.476157034985185 4.502436731431902 0.347662611403621
2.414283461071893 4.538676760982263 0.352294590606395
2.345269464894053 4.574553030176513 0.362062615645212
2.274987482511550 4.607552261579609 0.372864163315213
2.198689619683750 4.639296204456763 0.383162040305970
2.128751842577199 4.675762890998767 0.395624121256644
2.061029233217939 4.706761939312003 0.401884157956673
1.980122739910890 4.736188993879710 0.405611799023278
1.909623743796298 4.761121015832080 0.413121076745956
1.843053302242486 4.794274032892464 0.427736133697642
1.766285975479894 4.816130606421889 0.437137214851684
1.686046809014767 4.844135147364069 0.447638837491352
1.620178671989284 4.861626533595556 0.456150176514484
1.537532263687856 4.887555646604198 0.460328012733181
1.464220972276327 4.911232664295679 0.469701692423778
1.387028352628907 4.931773384634661 0.477682236323403
1.311429073716990 4.940673005635393 0.487481416202656
1.234331602517670 4.960295456917069 0.496904954458441
1.166538962211765 4.981262387787178 0.506314560864607
1.088439456782066 4.997962064047415 0.516165823342381
1.013106349133544 5.007081428447764 0.515717868468392
0.932899896010039 5.022743737369447 0.530739972828033
0.857813223195322 5.030861839546986 0.533529499504491
0.772945290657850 5.042355432642997 0.548983847075444
0.703713555190082 5.055814763701364 0.552996499762780
0.624907208891497 5.059203559424557 0.558559243312475
0.546840412051467 5.071121909408604 0.564691295160274
0.470549072232647 5.072417611903011 0.573129879687679
0.384365864674970 5.075496031539393 0.590268221031200
0.311767152395218 5.080580333347204 0.591867090505702
0.227689468046294 5.084229182151899 0.602388951523326
0.159046833331728 5.077651403873693 0.613442192175679
0.077758507905808 5.079171018881089 0.617246101487912
-0.007117760956291 5.074685133905153 0.628590243152914
-0.081858313132867 5.076424496375551 0.634637361876825
-0.154081900705308 5.066723416817029 0.635469651260317
-0.231791516935228 5.069049764312398 0.645388481913882
-0.312975773941966 5.062134823302181 0.651438962883227
-0.388858319703134 5.053459448871651 0.659445312978157
-0.468931709820698 5.043298769865264 0.673734469507757
-0.547358193701420 5.033374928896412 0.675150709082590
-0.622488720515899 5.021600585489051 0.689257426092845
-0.701315028643059 5.000461363534464 0.691771720769793
-0.782726320362152 4.985381099755430 0.693860680536016
-0.857982309248807 4.976631490038132 0.705453061194688
-0.932235135450815 4.957947039397733 0.714042520037822
-1.003351691163043 4.937319874231894 0.718016761329840
-1.085282478787231 4.917905976149486 0.722884548896675
-1.163325993261294 4.896788915174081 0.733302185711528
-1.232965912505863 4.882344791712658 0.736140379873986
-1.307737674632590 4.852918251275883 0.749544409473610
-1.383060775067241 4.836256367830757 0.755716176847003
-1.460247932938627 4.805937615834680 0.758523135393315
-1.531035905485899 4.780803077502779 0.762676702120351
-1.601684367738186 4.757860705139862 0.766045623212061
-1.680544690327479 4.721797570978061 0.776648676983569
-1.754559815505911 4.698221672308408 0.780465387824377
-1.823283172817135 4.662006388128220 0.783559407154121
-1.893893248339986 4.634005078878733 0.792723480142396
-1.969558621522178 4.600465484959593 0.802820702316789
-2.035738402032110 4.567439322372787 0.803337320756604
-2.105632050612440 4.532852928457944 0.807588697963310
-2.174684393037202 4.494050010827647 0.810040149161946
-2.249169205141617 4.452125192438804 0.819983027802630
-2.315262543657945 4.420561815943132 0.824306054226407
-2.378038483778384 4.379105644571868 0.827729250643470
-2.448332334246758 4.336219728367055 0.835750476862820
-2.516061528451692 4.299624760070448 0.841675888946324
-2.576325431484783 4.257047305139823 0.844501763722067
-2.643655296213093 4.214729468719385 0.845596913738625
-2.705243236061325 4.164788224931565 0.852096790419084
-2.775873031996388 4.114672912275823 0.853598032035844
-2.839586196081120 4.075951825329615 0.858818561469735
-2.897663191381708 4.027603281865870 0.866056157218162
-2.958039314336898 3.976401746692278 0.869566514656756
-3.017885010008866 3.925998241230779 0.873886353017583
-3.085128725362625 3.876436690317742 0.870776489836582
-3.141435780191372 3.825085053207156 0.880990743763482
-3.196635926477792 3.767918338204327 0.882070403057883
-3.253242993833041 3.714706948592510 0.884415706116830
-3.312757916072558 3.660207351880729 0.886582348535337
-3.371202114381848 3.610094246410590 0.887052331100433
-3.426324906674316 3.550058753327985 0.888812765516918
-3.471825297351586 3.500463009967032 0.894171620223518
-3.525545621181158 3.439977124585633 0.895754478832608
-3.579000755963957 3.382337109693788 0.898488314426616
-3.632820851637419 3.321516450194907 0.903797522381111
-3.685868549385023 3.258126865739055 0.907974978451984
-3.735419513842320 3.203679472898829 0.909272664842870
-3.786559142001769 3.132743530638685 0.908845808244416
-3.830438124231233 3.072681521071061 0.911807404029603
-3.874299277859919 3.011344983100087 0.913993023584589
-3.921199349319624 2.946918390882641 0.912961911930304
-3.967327876843650 2.887061995725316 0.911365904236222
-4.011218559302605 2.814371185031735 0.910929248654403
-4.048593749954460 2.753663106522720 0.914012514438326
-4.090685386982405 2.687597415381965 0.911107547826919
-4.133412968537026 2.614498112019941 0.915336607048750
-4.175451335208418 2.548320571139595 0.914379062740973
-4.210532087485706 2.481012595040492 0.916158803291714
-4.252222954529262 2.409721563964986 0.917907031331025
-4.289831107242560 2.339176805723159 0.921141148608130
-4.324740495271311 2.268054041310651 0.913723204196183
-4.355891880605740 2.205476017473584 0.919312441388866
-4.387804107011935 2.132097772995477 0.914873817999643
-4.415806401612293 2.059485466258717 0.918108250534378
-4.452944638115923 1.988920108663284 0.913527362933540
-4.476506827966890 1.913637396844748 0.916710710132011
-4.506698194622206 1.843980387032400 0.914780424696647
-4.532335309642449 1.763589028178837 0.916447513475179
-4.562338172034593 1.693344055427225 0.911454156110949
-4.583336958663709 1.622036096811677 0.909228209144558
-4.614166118130250 1.546712812833601 0.915226620873617
-4.633015805961617 1.472949162310100 0.904518867666848
-4.658586416973957 1.395411991679360 0.905074343134345
-4.672872712704659 1.312614518176120 0.902536806530164
-4.688661101919724 1.243871503322807 0.906502073375596
-4.707250857257405 1.163354707433541 0.901674506759560
-4.730731816831474 1.085424554347181 0.899026403127791
-4.743028437955997 1.005459414062620 0.895982937629405
-4.753325429668849 0.933127217283507 0.894802003280110
-4.773539267141004 0.852957139078766 0.892855898129867
-4.778300568638087 0.774885241748810 0.885787832812105
-4.792546555775960 0.699482112713956 0.888514994964278
-4.803048458252074 0.620150668363788 0.882295692396137
-4.811832804362062 0.541948588272453 0.882472523018116
-4.815080134493440 0.466256825957412 0.874263712164406
-4.819270588499063 0.385697566701733 0.876551774153228
-4.831097053593990 0.311475637023566 0.865709399205006
-4.834397047236667 0.232290546304670 0.868261200524264
-4.837209187972986 0.154776555590889 0.860090307716847
5.118780522227232 0.101735318755109 -0.097444423857458
5.124564211948401 0.177998706544150 -0.096222366822750
5.115994905178996 0.252967257829187 -0.090933882761628
5.113320047030387 0.331044681768153 -0.087457669748415
5.113109027299464 0.412943839037060 -0.084174786759360
5.106576227492472 0.490945177147335 -0.077664041727184
5.104253516490405 0.568969215902605 -0.074894224126301
5.094551590625080 0.645245387714098 -0.067312467192458
5.085925208282959 0.724645919919852 -0.066123713497089
5.070182290293618 0.796877043630376 -0.057561146861658
5.062856120499528 0.883075878591112 -0.056610803761841
5.047466998477608 0.952356302283743 -0.053149225498914
5.031788914539912 1.037464821589796 -0.047028683420326
5.019181798555050 1.109829641268589 -0.034976333939516
5.006694977915248 1.185588725340048 -0.029492242775025
4.988274271801407 1.265989747932888 -0.030432278584939
4.969143460156646 1.339516018989603 -0.020362144106748
4.946122537340900 1.416322508994216 -0.016330116270428
4.922647660828146 1.489326038008102 -0.004901503455430
4.906416536852924 1.561157604508956 -0.001596484613024
4.879319469697947 1.638181901702197 0.004513323696272
4.851326023236915 1.711961686366850 0.009023521182713
4.834650117930191 1.790857577823148 0.016550578519374
4.805431963297785 1.861282249174865 0.017378279740313
4.780738145697414 1.938976889558179 0.030245399381755
4.746982463470308 2.005895244124708 0.029292714009796
4.712257874640049 2.084219850703585 0.039439664761991
4.689121796889623 2.154973910271701 0.042643557645795
4.649153083111299 2.223963929940500 0.055270149297485
4.617555105970733 2.292383128703269 0.064367834509722
4.580870968781693 2.367594283241786 0.066477759753323
4.551515036364283 2.431220600216931 0.073252289748218
4.509232483957777 2.504387299355435 0.086885846706760
4.471969278155544 2.569016393916069 0.085532560216349
4.438623685173067 2.636122535814768 0.099482936261558
4.394470163585299 2.703583817370302 0.109314226738813
4.351016385005605 2.772445605471075 0.116171853947834
4.313044508846012 2.833424122735948 0.117679467198077
4.267869290332442 2.902996863906316 0.126579503904676
4.219103645561964 2.965030365712960 0.130822263187510
4.179114672159590 3.030720098986408 0.142464598757913
4.132520396436682 3.091590640088389 0.146939587158879
4.088378905120923 3.153889442182539 0.160878353684614
4.039786878987589 3.213262786387850 0.165934521503141
3.988925296093574 3.279623142356575 0.175692146388952
3.935756061158439 3.342557778121419 0.180024164734089
3.885309777090951 3.400090903487438 0.189574439072155
3.834596754445208 3.450569385672542 0.202353079643877
3.784391488420518 3.511695285050382 0.209697895907021
3.725436828085914 3.566589095783955 0.219257040736997
3.675897772540440 3.620168976572884 0.224030125909693
3.613101016013020 3.679275440883642 0.235648462840241
3.554885172944969 3.729429446328154 0.237143749891089
3.507100014107386 3.786613441171982 0.248642617151994
3.446277125729683 3.843908001673094 0.252002284813605
3.390074925466679 3.886108217299894 0.260332865040380
3.330268497023988 3.938248221860712 0.272574274327915
3.263963578954006 3.986999365561650 0.278614920117181
3.205676587521025 4.035085871624746 0.294001240703803
3.144022154065597 4.086196769174938 0.297553577454956
3.078254718583153 4.129502354076893 0.304841881253979
3.018614759529633 4.173101825330678 0.318954611439809
2.952012347332876 4.226875658546219 0.324823951266236
2.881913338736579 4.270369233493156 0.331394903532786
2.817492050831161 4.307239873650247 0.339146945808143
2.758225164789314 4.345013753910504 0.349568262366729
2.683593332106132 4.384941280026507 0.359770686146078
2.621300582069540 4.433376627231334 0.365745880770597
2.554551821584316 4.467010635559591 0.381675516606766
2.489304175190988 4.500338687481530 0.388542156453990
2.412734480224672 4.534999425353634 0.397172025581945
2.341742422912975 4.571221185631353 0.399554430092623
2.272283013196837 4.610140905993846 0.416330735380708
2.201720878313056 4.637213372576874 0.418011262922899
2.128344290539465 4.677104765616473 0.434548857450418
2.061240400231533 4.701723298661957 0.437969375845497
1.991287904840601 4.732287260144165 0.445402082887076
1.913108483437731 4.761517454188775 0.453077154906261
1.841317839799188 4.788701072217789 0.465764106309030
1.767673117458890 4.818221092405341 0.471061242355676
1.694565788236370 4.836945208860273 0.482796201521613
1.619514585502593 4.856771193283418 0.488787743308938
1.544177460450829 4.879126459887352 0.499833916521834
1.469812778110809 4.907851725900783 0.504484041852155
1.390831017292530 4.927342793021000 0.515017813834313
1.322368716500276 4.944357365809379 0.526882695108944
1.238388584358820 4.959928518669923 0.539301413574040
1.164639036480855 4.980808499732242 0.546362960572571
1.090736198761130 4.995163690546667 0.553289242440411
1.008989486641496 5.005412566506614 0.565012960484648
0.931280131368997 5.021546804027191 0.571254801879449
0.855509180241190 5.029782964337968 0.577110565626739
0.778459168101085 5.044428369690762 0.585992323730269
0.699364103990210 5.049828275755954 0.597819309423747
0.627947381468530 5.054075212158383 0.597292670808879
0.544360738790359 5.065384875411461 0.610672928723181
0.472064234845409 5.068450431723924 0.620823081059441
0.392944397367936 5.072243203611430 0.626003940713094
0.315684861439476 5.073607347749289 0.633655076793462
0.233605189756139 5.075852848794514 0.639979299371607
0.156945379588051 5.076424483212029 0.654142117380399
0.080439557967492 5.075874341697449 0.653698599381169
0.003158967150092 5.076422402174009 0.661434295237050
-0.073181259738402 5.073496468375541 0.668015095286075
-0.153125468851674 5.065145993517922 0.679893860090272
-0.233169558016310 5.059873057625300 0.690797300820402
-0.305800896547816 5.057357627652269 0.695484224927159
-0.386218407774663 5.050403840502497 0.702898023059663
-0.464761848316003 5.041436335223296 0.714309210055645
-0.545458309054217 5.030047600603918 0.716435811807666
-0.620507645952586 5.019445577371923 0.722797604247741
-0.697338670755267 5.003050274209992 0.734403229907015
-0.769438049485660 4.992101464805202 0.741726806279547
